//X Y Z Consensus 
0.60000000 -0.75000000 0.30000000 0.196274
-0.25000000 0.05000000 -0.85000000 0.196284
0.40000000 -0.70000000 0.40000000 0.196295
-0.20000000 0.80000000 -0.60000000 0.196304
-0.85000000 -0.40000000 -0.60000000 0.196319
0.05000000 0.05000000 -0.85000000 0.196323
-0.85000000 -0.85000000 -0.35000000 0.196324
0.25000000 0.05000000 -0.80000000 0.196327
-1.00000000 0.40000000 0.30000000 0.196332
0.45000000 -0.80000000 0.35000000 0.196354
0.50000000 0.80000000 -0.45000000 0.196362
0.45000000 -1.00000000 -0.50000000 0.196382
-0.10000000 0.40000000 0.40000000 0.196400
0.85000000 -0.30000000 0.35000000 0.196414
-0.55000000 -0.85000000 0.35000000 0.196417
-0.60000000 0.50000000 -0.65000000 0.196428
-1.00000000 -0.85000000 0.10000000 0.196449
0.05000000 0.15000000 -0.85000000 0.196449
-0.15000000 0.55000000 -0.75000000 0.196458
0.95000000 0.45000000 0.20000000 0.196464
0.70000000 0.65000000 0.20000000 0.196479
0.75000000 0.10000000 -0.60000000 0.196485
-0.40000000 0.80000000 -0.55000000 0.196487
-0.90000000 -0.90000000 0.10000000 0.196487
-0.30000000 -0.95000000 0.40000000 0.196491
0.15000000 0.50000000 -0.75000000 0.196499
-0.75000000 -0.80000000 -0.45000000 0.196501
0.45000000 0.30000000 0.40000000 0.196523
0.00000000 -0.80000000 -0.65000000 0.196540
-0.15000000 -0.05000000 -0.85000000 0.196568
-0.20000000 -0.45000000 -0.75000000 0.196590
0.25000000 0.10000000 -0.80000000 0.196596
-0.20000000 -0.15000000 0.45000000 0.196610
0.90000000 -0.70000000 0.10000000 0.196634
-0.50000000 0.20000000 0.40000000 0.196648
-0.50000000 0.95000000 0.20000000 0.196667
-0.95000000 0.30000000 -0.60000000 0.196683
0.35000000 -0.95000000 -0.55000000 0.196708
-0.45000000 0.10000000 -0.80000000 0.196711
-0.15000000 0.70000000 0.35000000 0.196737
-0.70000000 0.05000000 0.40000000 0.196740
-0.65000000 0.45000000 -0.65000000 0.196759
-0.85000000 0.20000000 -0.65000000 0.196776
-0.40000000 -0.25000000 0.45000000 0.196780
-0.10000000 -0.75000000 0.45000000 0.196781
-0.05000000 -0.05000000 -0.85000000 0.196799
0.35000000 -0.60000000 -0.65000000 0.196800
-1.00000000 0.75000000 -0.10000000 0.196809
0.75000000 -0.95000000 -0.20000000 0.196834
0.85000000 0.35000000 -0.50000000 0.196834
-0.45000000 -0.30000000 0.45000000 0.196837
0.05000000 0.10000000 -0.85000000 0.196838
0.55000000 0.60000000 0.30000000 0.196853
-0.65000000 -0.70000000 -0.55000000 0.196861
-0.25000000 0.15000000 -0.85000000 0.196879
-0.25000000 -0.75000000 -0.65000000 0.196889
-0.90000000 -0.50000000 -0.55000000 0.196891
0.05000000 -0.45000000 -0.75000000 0.196910
-0.10000000 -0.80000000 -0.65000000 0.196918
0.85000000 -0.60000000 -0.40000000 0.196918
-0.75000000 0.90000000 -0.05000000 0.196931
0.20000000 0.85000000 -0.55000000 0.196940
-0.05000000 -0.75000000 0.45000000 0.196940
-0.60000000 -0.75000000 -0.55000000 0.196967
0.10000000 -0.60000000 -0.70000000 0.196978
0.15000000 -0.95000000 0.40000000 0.196979
0.85000000 0.15000000 -0.55000000 0.196982
1.00000000 0.20000000 -0.50000000 0.196982
0.20000000 -0.55000000 -0.70000000 0.197004
0.45000000 -0.45000000 0.45000000 0.197012
-0.75000000 0.70000000 0.20000000 0.197016
-0.35000000 -0.15000000 -0.80000000 0.197030
-0.95000000 0.00000000 -0.65000000 0.197063
-0.45000000 0.40000000 -0.75000000 0.197083
-0.30000000 1.00000000 -0.50000000 0.197085
-0.25000000 0.10000000 -0.85000000 0.197107
0.30000000 -0.60000000 0.45000000 0.197116
-0.75000000 -0.75000000 0.30000000 0.197132
-0.30000000 -0.20000000 -0.80000000 0.197134
-0.60000000 -0.30000000 -0.70000000 0.197150
0.40000000 -0.55000000 -0.65000000 0.197169
-0.30000000 -0.40000000 -0.75000000 0.197171
0.30000000 -0.80000000 -0.60000000 0.197175
0.30000000 -0.25000000 -0.75000000 0.197178
-0.10000000 -0.05000000 -0.85000000 0.197195
0.10000000 -0.05000000 0.45000000 0.197198
0.45000000 -0.65000000 -0.60000000 0.197223
-0.75000000 0.90000000 -0.15000000 0.197235
-0.05000000 -0.10000000 0.45000000 0.197235
0.20000000 -0.10000000 -0.80000000 0.197253
0.70000000 0.30000000 0.35000000 0.197269
-0.80000000 -0.05000000 0.40000000 0.197278
-0.90000000 -0.75000000 -0.40000000 0.197282
0.80000000 -0.85000000 -0.20000000 0.197296
-0.05000000 0.25000000 -0.85000000 0.197300
0.15000000 -0.40000000 -0.75000000 0.197312
-0.20000000 0.00000000 -0.85000000 0.197334
0.45000000 -0.65000000 0.40000000 0.197339
-0.45000000 0.95000000 -0.45000000 0.197345
-0.75000000 0.00000000 0.40000000 0.197374
0.20000000 0.40000000 0.40000000 0.197384
0.35000000 -0.75000000 -0.60000000 0.197395
-0.75000000 0.85000000 0.05000000 0.197402
-0.70000000 1.00000000 -0.05000000 0.197418
0.60000000 1.00000000 -0.10000000 0.197421
-0.80000000 -0.75000000 -0.45000000 0.197435
-0.30000000 0.60000000 -0.70000000 0.197447
0.35000000 0.35000000 0.40000000 0.197457
0.35000000 -0.15000000 -0.75000000 0.197462
0.40000000 -0.05000000 0.45000000 0.197467
-0.70000000 1.00000000 -0.15000000 0.197472
0.50000000 -0.60000000 0.40000000 0.197477
-0.90000000 -0.95000000 0.05000000 0.197479
-0.15000000 0.25000000 -0.85000000 0.197489
0.45000000 0.35000000 -0.70000000 0.197490
0.00000000 0.00000000 -0.85000000 0.197522
0.25000000 -0.85000000 -0.60000000 0.197533
0.65000000 -0.85000000 -0.40000000 0.197533
0.50000000 -0.15000000 0.45000000 0.197537
-0.90000000 -0.60000000 -0.50000000 0.197548
-0.05000000 -0.80000000 -0.65000000 0.197558
1.00000000 -0.55000000 0.20000000 0.197564
-0.30000000 -0.20000000 0.45000000 0.197585
-0.05000000 0.40000000 0.40000000 0.197595
1.00000000 -0.50000000 -0.40000000 0.197598
0.55000000 0.45000000 0.35000000 0.197603
0.40000000 -0.70000000 -0.60000000 0.197612
0.65000000 0.10000000 0.40000000 0.197644
0.85000000 -0.80000000 0.00000000 0.197654
-0.25000000 -0.70000000 0.45000000 0.197656
-0.50000000 -0.20000000 -0.75000000 0.197662
0.50000000 -0.35000000 0.45000000 0.197672
-0.70000000 -0.80000000 0.30000000 0.197704
-0.85000000 -0.55000000 0.35000000 0.197723
-0.05000000 0.55000000 -0.75000000 0.197728
-0.70000000 -0.65000000 -0.55000000 0.197740
0.95000000 -0.70000000 0.05000000 0.197745
1.00000000 0.60000000 0.00000000 0.197754
0.05000000 -0.25000000 -0.80000000 0.197792
0.90000000 -0.20000000 0.35000000 0.197811
0.70000000 -1.00000000 0.10000000 0.197813
0.70000000 -0.30000000 0.40000000 0.197819
-0.85000000 -0.25000000 0.40000000 0.197826
-0.40000000 0.55000000 -0.70000000 0.197841
-0.25000000 0.40000000 -0.80000000 0.197842
-0.10000000 0.55000000 -0.75000000 0.197844
-0.60000000 0.80000000 -0.45000000 0.197850
-1.00000000 0.40000000 -0.55000000 0.197851
0.50000000 0.45000000 -0.65000000 0.197871
1.00000000 -0.40000000 -0.45000000 0.197871
-0.40000000 -0.50000000 -0.70000000 0.197882
0.35000000 -0.95000000 0.35000000 0.197883
0.95000000 0.45000000 -0.40000000 0.197913
-1.00000000 -0.65000000 -0.45000000 0.197954
-0.30000000 0.85000000 -0.55000000 0.197984
-0.25000000 0.70000000 -0.65000000 0.197989
0.00000000 0.20000000 -0.85000000 0.197992
-0.95000000 -0.70000000 0.25000000 0.198011
-0.10000000 0.25000000 -0.85000000 0.198014
0.40000000 -0.35000000 -0.70000000 0.198028
0.40000000 -0.85000000 -0.55000000 0.198031
-0.40000000 0.25000000 0.40000000 0.198043
0.75000000 -0.05000000 -0.60000000 0.198057
-0.20000000 0.35000000 0.40000000 0.198087
-0.70000000 0.95000000 0.00000000 0.198103
0.40000000 0.65000000 -0.60000000 0.198124
-0.30000000 0.50000000 -0.75000000 0.198136
0.75000000 0.60000000 0.20000000 0.198170
-0.85000000 -0.15000000 0.40000000 0.198179
-0.80000000 -0.25000000 -0.65000000 0.198183
-0.65000000 0.30000000 -0.70000000 0.198189
-0.60000000 0.45000000 0.35000000 0.198231
-0.70000000 0.20000000 -0.70000000 0.198233
-0.70000000 0.50000000 -0.60000000 0.198274
-0.90000000 0.25000000 0.35000000 0.198317
-0.55000000 -0.80000000 -0.55000000 0.198345
-0.55000000 0.15000000 0.40000000 0.198360
0.40000000 0.95000000 0.20000000 0.198360
0.15000000 -1.00000000 -0.60000000 0.198398
-0.20000000 0.20000000 -0.85000000 0.198414
-0.80000000 -0.35000000 0.40000000 0.198418
-0.55000000 0.25000000 -0.75000000 0.198440
0.00000000 0.40000000 0.40000000 0.198445
0.15000000 0.40000000 0.40000000 0.198465
-0.65000000 0.85000000 0.15000000 0.198467
0.70000000 -0.85000000 -0.35000000 0.198478
0.05000000 0.70000000 0.35000000 0.198486
-0.65000000 -0.95000000 -0.45000000 0.198489
0.75000000 0.05000000 -0.60000000 0.198489
-0.55000000 -0.10000000 -0.75000000 0.198500
0.85000000 0.10000000 0.35000000 0.198517
-0.80000000 0.30000000 0.35000000 0.198518
0.65000000 -0.40000000 0.40000000 0.198519
-0.30000000 0.30000000 0.40000000 0.198522
-0.95000000 -0.90000000 0.05000000 0.198541
0.65000000 0.35000000 0.35000000 0.198543
-0.45000000 -0.50000000 0.45000000 0.198573
-0.80000000 0.85000000 -0.10000000 0.198586
-0.20000000 -0.25000000 -0.80000000 0.198621
0.90000000 -0.55000000 -0.40000000 0.198656
-1.00000000 0.65000000 -0.35000000 0.198674
0.35000000 -0.55000000 0.45000000 0.198698
0.60000000 0.40000000 0.35000000 0.198700
0.15000000 -0.05000000 0.45000000 0.198705
0.70000000 0.00000000 0.40000000 0.198709
0.60000000 0.90000000 0.05000000 0.198722
0.40000000 -0.50000000 0.45000000 0.198726
0.55000000 0.70000000 0.25000000 0.198728
-0.70000000 -0.50000000 0.40000000 0.198748
-0.85000000 -0.20000000 0.40000000 0.198773
-0.70000000 0.95000000 -0.20000000 0.198791
0.05000000 0.40000000 -0.80000000 0.198811
0.85000000 0.45000000 -0.45000000 0.198820
-0.15000000 -0.15000000 0.45000000 0.198821
0.80000000 -0.65000000 -0.40000000 0.198843
-0.10000000 0.70000000 0.35000000 0.198847
-0.15000000 -0.45000000 -0.75000000 0.198852
-0.55000000 0.70000000 -0.55000000 0.198867
-0.35000000 1.00000000 0.25000000 0.198867
-0.40000000 -0.05000000 -0.80000000 0.198872
0.50000000 0.25000000 0.40000000 0.198880
0.05000000 0.40000000 0.40000000 0.198913
1.00000000 -0.35000000 0.30000000 0.198916
-0.85000000 -0.75000000 0.25000000 0.198920
-0.45000000 -0.95000000 -0.55000000 0.198934
0.20000000 -0.90000000 -0.60000000 0.198940
0.10000000 0.40000000 0.40000000 0.198944
0.00000000 0.05000000 -0.85000000 0.198949
1.00000000 -0.65000000 0.10000000 0.198952
-0.95000000 -0.95000000 -0.05000000 0.198954
-0.15000000 0.00000000 -0.85000000 0.198965
0.25000000 0.65000000 -0.65000000 0.198972
0.20000000 0.25000000 -0.80000000 0.198975
0.45000000 -0.10000000 0.45000000 0.198991
0.75000000 0.00000000 -0.60000000 0.198991
0.25000000 -0.30000000 -0.75000000 0.199003
-0.15000000 0.90000000 0.30000000 0.199005
0.00000000 -0.45000000 -0.75000000 0.199009
-0.40000000 0.25000000 -0.80000000 0.199019
-0.40000000 -0.65000000 -0.65000000 0.199023
-0.05000000 0.00000000 -0.85000000 0.199023
0.85000000 -0.15000000 -0.55000000 0.199035
0.90000000 0.40000000 -0.45000000 0.199045
0.20000000 -0.35000000 -0.75000000 0.199048
-0.20000000 0.05000000 -0.85000000 0.199050
0.60000000 0.80000000 0.15000000 0.199052
0.60000000 0.45000000 -0.60000000 0.199054
0.15000000 0.60000000 -0.70000000 0.199059
-0.20000000 -0.60000000 -0.70000000 0.199075
-0.25000000 0.85000000 0.30000000 0.199089
-0.85000000 0.55000000 0.25000000 0.199138
0.15000000 -0.15000000 -0.80000000 0.199184
0.25000000 0.55000000 -0.70000000 0.199231
-0.25000000 -1.00000000 -0.60000000 0.199268
-1.00000000 0.55000000 -0.45000000 0.199288
-0.90000000 -0.10000000 -0.65000000 0.199289
-0.90000000 0.10000000 -0.65000000 0.199290
0.25000000 0.80000000 0.30000000 0.199298
-0.75000000 0.45000000 -0.60000000 0.199300
0.55000000 0.85000000 0.15000000 0.199312
0.00000000 -0.10000000 0.45000000 0.199313
0.00000000 0.15000000 -0.85000000 0.199332
-1.00000000 0.50000000 0.25000000 0.199341
0.10000000 -0.20000000 -0.80000000 0.199350
0.40000000 0.55000000 -0.65000000 0.199358
0.70000000 -0.25000000 -0.60000000 0.199367
0.45000000 -0.25000000 -0.70000000 0.199369
-0.55000000 -0.35000000 -0.70000000 0.199377
-0.95000000 0.40000000 0.30000000 0.199418
0.35000000 -0.05000000 0.45000000 0.199421
-0.80000000 0.50000000 -0.55000000 0.199421
-0.35000000 -0.85000000 -0.60000000 0.199436
0.60000000 0.55000000 0.30000000 0.199453
0.80000000 0.35000000 0.30000000 0.199472
0.50000000 -0.10000000 -0.70000000 0.199493
-0.60000000 -0.95000000 0.30000000 0.199498
-0.10000000 0.00000000 -0.85000000 0.199514
0.60000000 0.90000000 -0.25000000 0.199521
-0.70000000 0.80000000 0.15000000 0.199525
-0.45000000 -0.35000000 0.45000000 0.199527
-0.35000000 -0.35000000 -0.75000000 0.199587
0.00000000 0.10000000 -0.85000000 0.199595
0.65000000 0.80000000 0.10000000 0.199643
0.75000000 -1.00000000 -0.15000000 0.199644
-0.75000000 -0.60000000 -0.55000000 0.199648
0.85000000 0.30000000 0.30000000 0.199651
-0.80000000 -0.70000000 0.30000000 0.199667
0.90000000 0.00000000 0.35000000 0.199669
0.60000000 -0.20000000 -0.65000000 0.199671
-0.70000000 -0.75000000 -0.50000000 0.199671
0.10000000 -0.70000000 0.45000000 0.199687
-0.95000000 -0.95000000 -0.10000000 0.199696
0.90000000 0.65000000 -0.15000000 0.199701
0.50000000 0.20000000 -0.70000000 0.199733
0.00000000 0.70000000 0.35000000 0.199734
0.90000000 -0.65000000 0.15000000 0.199737
0.40000000 -0.85000000 0.35000000 0.199749
-0.20000000 0.15000000 -0.85000000 0.199758
0.60000000 -0.45000000 -0.60000000 0.199766
0.60000000 0.15000000 0.40000000 0.199782
0.50000000 -0.20000000 0.45000000 0.199804
-0.45000000 -0.45000000 -0.70000000 0.199810
-0.55000000 -1.00000000 -0.50000000 0.199815
-1.00000000 -0.75000000 0.20000000 0.199819
0.20000000 -0.05000000 0.45000000 0.199826
0.05000000 0.90000000 0.30000000 0.199835
-0.40000000 -0.80000000 -0.60000000 0.199837
0.90000000 -0.75000000 0.00000000 0.199848
0.60000000 -0.60000000 -0.55000000 0.199848
-0.05000000 0.70000000 0.35000000 0.199849
-0.45000000 -0.25000000 -0.75000000 0.199861
-0.05000000 0.20000000 -0.85000000 0.199863
0.20000000 -0.05000000 -0.80000000 0.199865
-0.85000000 -1.00000000 -0.25000000 0.199892
-0.15000000 0.35000000 0.40000000 0.199903
-0.20000000 0.10000000 -0.85000000 0.199909
-0.60000000 0.10000000 0.40000000 0.199924
0.70000000 -0.80000000 0.20000000 0.199924
0.65000000 0.50000000 -0.55000000 0.199928
0.00000000 -0.25000000 -0.80000000 0.199929
0.60000000 0.25000000 -0.65000000 0.199985
-0.35000000 -0.25000000 0.45000000 0.199987
0.25000000 -0.50000000 -0.70000000 0.199989
-0.10000000 -0.45000000 -0.75000000 0.199995
0.05000000 0.80000000 -0.60000000 0.200038
-0.05000000 -0.45000000 -0.75000000 0.200042
-0.25000000 -0.20000000 0.45000000 0.200049
0.50000000 -0.30000000 0.45000000 0.200057
-0.45000000 0.20000000 0.40000000 0.200060
0.20000000 -0.65000000 0.45000000 0.200070
0.55000000 0.20000000 0.40000000 0.200079
0.80000000 0.55000000 0.20000000 0.200101
-0.70000000 -0.10000000 -0.70000000 0.200113
0.75000000 0.40000000 0.30000000 0.200118
-0.15000000 0.20000000 -0.85000000 0.200119
0.80000000 -0.45000000 -0.50000000 0.200124
0.60000000 -0.95000000 -0.40000000 0.200154
0.20000000 -0.70000000 -0.65000000 0.200160
-0.80000000 0.40000000 -0.60000000 0.200176
0.60000000 -0.85000000 0.25000000 0.200182
0.45000000 0.50000000 -0.65000000 0.200191
-0.75000000 0.90000000 -0.10000000 0.200217
0.85000000 0.65000000 0.05000000 0.200255
0.90000000 0.65000000 -0.05000000 0.200255
0.50000000 -0.85000000 -0.50000000 0.200282
-0.30000000 -0.90000000 -0.60000000 0.200287
-0.50000000 -0.40000000 -0.70000000 0.200288
-0.45000000 0.55000000 0.35000000 0.200297
0.30000000 -0.05000000 0.45000000 0.200347
0.30000000 0.35000000 -0.75000000 0.200349
-0.75000000 0.50000000 0.30000000 0.200384
-0.70000000 0.65000000 0.25000000 0.200386
0.25000000 1.00000000 0.25000000 0.200400
0.25000000 -0.05000000 0.45000000 0.200425
0.05000000 -0.60000000 -0.70000000 0.200448
-0.75000000 0.85000000 -0.25000000 0.200449
-0.15000000 -0.25000000 -0.80000000 0.200468
0.75000000 0.35000000 -0.55000000 0.200473
-0.40000000 -0.30000000 -0.75000000 0.200483
-0.75000000 -0.30000000 -0.65000000 0.200486
-0.80000000 -0.90000000 -0.35000000 0.200504
0.55000000 0.75000000 -0.45000000 0.200518
-0.70000000 -0.85000000 -0.45000000 0.200532
0.30000000 0.35000000 0.40000000 0.200534
0.65000000 0.75000000 0.15000000 0.200536
0.35000000 -0.40000000 -0.70000000 0.200539
0.55000000 -0.80000000 0.30000000 0.200551
-0.05000000 0.05000000 -0.85000000 0.200558
0.70000000 0.75000000 0.10000000 0.200584
-0.10000000 0.20000000 -0.85000000 0.200586
-0.70000000 0.90000000 0.05000000 0.200593
-0.75000000 -0.70000000 -0.50000000 0.200594
-0.25000000 -1.00000000 0.40000000 0.200601
-0.70000000 1.00000000 -0.10000000 0.200603
0.35000000 0.25000000 -0.75000000 0.200606
0.85000000 0.65000000 -0.25000000 0.200615
-0.15000000 0.05000000 -0.85000000 0.200648
-0.65000000 0.40000000 0.35000000 0.200652
-0.45000000 -0.45000000 0.45000000 0.200658
0.65000000 0.50000000 0.30000000 0.200685
0.35000000 -0.10000000 -0.75000000 0.200694
-0.80000000 0.25000000 -0.65000000 0.200708
0.50000000 -0.25000000 0.45000000 0.200712
0.05000000 0.90000000 -0.55000000 0.200719
-0.80000000 -0.10000000 0.40000000 0.200731
0.60000000 0.85000000 0.10000000 0.200740
-0.90000000 -1.00000000 0.00000000 0.200743
0.70000000 0.45000000 0.30000000 0.200752
-0.15000000 0.80000000 -0.60000000 0.200757
-0.90000000 -0.35000000 -0.60000000 0.200782
-0.30000000 -0.65000000 0.45000000 0.200786
0.65000000 -0.75000000 -0.45000000 0.200788
-0.65000000 -0.20000000 -0.70000000 0.200801
-1.00000000 -0.80000000 0.15000000 0.200803
-0.25000000 0.30000000 0.40000000 0.200807
0.10000000 -0.75000000 -0.65000000 0.200811
-0.35000000 0.25000000 0.40000000 0.200827
1.00000000 0.20000000 0.30000000 0.200842
-0.30000000 -0.55000000 -0.70000000 0.200854
-1.00000000 -0.60000000 0.30000000 0.200856
0.10000000 -1.00000000 0.40000000 0.200879
-0.45000000 -0.40000000 0.45000000 0.200900
-0.40000000 -0.30000000 0.45000000 0.200900
-0.80000000 0.80000000 0.05000000 0.200903
0.20000000 0.45000000 -0.75000000 0.200914
-0.55000000 0.65000000 0.30000000 0.200922
0.80000000 0.25000000 -0.55000000 0.200930
0.80000000 0.50000000 -0.45000000 0.200955
0.40000000 0.55000000 0.35000000 0.200956
0.20000000 0.65000000 0.35000000 0.200970
0.15000000 0.85000000 0.30000000 0.200976
0.75000000 -0.80000000 0.15000000 0.200981
-0.10000000 -0.15000000 0.45000000 0.201008
-0.25000000 -0.20000000 -0.80000000 0.201033
1.00000000 -0.70000000 0.00000000 0.201042
0.45000000 -0.95000000 -0.50000000 0.201060
0.65000000 -0.95000000 -0.35000000 0.201061
-0.45000000 -0.75000000 -0.60000000 0.201084
-0.05000000 -0.25000000 -0.80000000 0.201095
0.40000000 0.80000000 -0.50000000 0.201103
0.55000000 1.00000000 -0.25000000 0.201109
-0.30000000 0.35000000 -0.80000000 0.201116
0.50000000 0.65000000 -0.55000000 0.201118
-0.05000000 0.15000000 -0.85000000 0.201135
-0.10000000 0.05000000 -0.85000000 0.201136
-0.75000000 -0.95000000 0.20000000 0.201153
0.30000000 -0.45000000 -0.70000000 0.201181
0.55000000 1.00000000 0.05000000 0.201196
-0.15000000 0.90000000 -0.55000000 0.201197
-0.65000000 0.05000000 0.40000000 0.201203
-0.20000000 -0.70000000 0.45000000 0.201205
0.65000000 -0.65000000 -0.50000000 0.201206
0.70000000 -0.50000000 0.35000000 0.201212
0.85000000 -0.45000000 0.30000000 0.201215
0.70000000 0.25000000 -0.60000000 0.201251
-0.40000000 -0.55000000 0.45000000 0.201274
0.05000000 -0.10000000 0.45000000 0.201276
-0.25000000 0.65000000 0.35000000 0.201277
-0.10000000 -0.25000000 -0.80000000 0.201282
-0.40000000 0.90000000 0.25000000 0.201292
-0.05000000 0.10000000 -0.85000000 0.201308
0.90000000 -0.45000000 -0.45000000 0.201309
-0.90000000 0.60000000 0.20000000 0.201324
-0.35000000 -0.10000000 -0.80000000 0.201335
0.40000000 0.70000000 0.30000000 0.201369
-0.15000000 0.15000000 -0.85000000 0.201392
-0.65000000 -0.80000000 -0.50000000 0.201410
0.90000000 -0.40000000 0.30000000 0.201412
0.40000000 0.30000000 0.40000000 0.201426
-0.35000000 0.30000000 -0.80000000 0.201453
-0.10000000 0.35000000 0.40000000 0.201455
0.10000000 0.70000000 -0.65000000 0.201466
-0.45000000 0.85000000 0.25000000 0.201486
0.10000000 -0.40000000 -0.75000000 0.201492
-0.50000000 -0.85000000 -0.55000000 0.201500
-0.15000000 0.10000000 -0.85000000 0.201507
0.90000000 0.25000000 0.30000000 0.201519
-0.20000000 0.40000000 -0.80000000 0.201531
-0.25000000 -0.40000000 -0.75000000 0.201540
-0.65000000 -0.55000000 0.40000000 0.201546
0.95000000 0.35000000 0.25000000 0.201560
0.85000000 -0.80000000 -0.15000000 0.201562
0.15000000 0.30000000 -0.80000000 0.201573
0.55000000 -0.95000000 0.25000000 0.201573
0.95000000 0.55000000 -0.30000000 0.201582
-0.65000000 -0.85000000 0.30000000 0.201618
-0.90000000 -0.95000000 -0.20000000 0.201654
0.10000000 0.35000000 -0.80000000 0.201655
0.15000000 -0.95000000 -0.60000000 0.201683
0.20000000 0.20000000 -0.80000000 0.201687
0.90000000 -0.15000000 0.35000000 0.201704
-0.95000000 0.75000000 -0.05000000 0.201708
-0.40000000 0.00000000 -0.80000000 0.201716
0.95000000 -0.25000000 -0.50000000 0.201759
-0.60000000 0.90000000 0.15000000 0.201813
0.20000000 0.00000000 -0.80000000 0.201826
-0.50000000 -0.90000000 0.35000000 0.201830
-0.10000000 0.15000000 -0.85000000 0.201834
-0.85000000 0.35000000 -0.60000000 0.201846
0.85000000 -0.75000000 -0.25000000 0.201851
0.30000000 -0.20000000 -0.75000000 0.201851
0.40000000 1.00000000 -0.40000000 0.201873
-0.15000000 -0.60000000 -0.70000000 0.201886
0.85000000 -0.50000000 -0.45000000 0.201890
-0.70000000 0.65000000 -0.50000000 0.201891
0.70000000 -0.45000000 -0.55000000 0.201909
-0.75000000 -0.05000000 0.40000000 0.201916
0.50000000 -0.05000000 -0.70000000 0.201924
0.85000000 0.10000000 -0.55000000 0.201925
0.50000000 -0.40000000 -0.65000000 0.201926
-0.40000000 0.75000000 0.30000000 0.201951
-0.10000000 0.10000000 -0.85000000 0.201957
-0.70000000 0.00000000 0.40000000 0.201968
0.65000000 -0.35000000 -0.60000000 0.201976
-0.30000000 -0.15000000 -0.80000000 0.201977
-0.70000000 0.85000000 0.10000000 0.201987
-0.65000000 1.00000000 0.05000000 0.201989
-0.50000000 0.15000000 0.40000000 0.201999
-0.10000000 0.90000000 0.30000000 0.202006
-0.35000000 -0.60000000 0.45000000 0.202032
0.00000000 0.40000000 -0.80000000 0.202044
-0.85000000 0.80000000 -0.05000000 0.202084
-1.00000000 -0.85000000 -0.25000000 0.202090
-0.80000000 -0.30000000 0.40000000 0.202100
0.25000000 0.40000000 -0.75000000 0.202105
-0.95000000 0.75000000 -0.15000000 0.202118
-0.45000000 0.60000000 -0.65000000 0.202132
-0.35000000 -0.85000000 0.40000000 0.202156
-0.20000000 -0.75000000 -0.65000000 0.202165
0.60000000 0.65000000 0.25000000 0.202203
1.00000000 -0.60000000 0.15000000 0.202276
0.45000000 -1.00000000 0.30000000 0.202283
-0.30000000 -0.90000000 0.40000000 0.202285
-0.45000000 -0.60000000 -0.65000000 0.202304
-0.75000000 -0.40000000 0.40000000 0.202306
-0.55000000 -0.05000000 -0.75000000 0.202327
-0.35000000 0.60000000 0.35000000 0.202327
-0.50000000 0.80000000 -0.50000000 0.202332
-1.00000000 -0.90000000 0.00000000 0.202348
0.45000000 -0.40000000 0.45000000 0.202360
-1.00000000 0.60000000 -0.40000000 0.202364
0.10000000 0.50000000 -0.75000000 0.202380
-0.20000000 -0.20000000 0.45000000 0.202395
-0.90000000 -0.80000000 -0.35000000 0.202404
-0.40000000 0.20000000 -0.80000000 0.202405
0.40000000 0.40000000 -0.70000000 0.202422
0.50000000 0.15000000 -0.70000000 0.202423
0.00000000 0.90000000 0.30000000 0.202427
0.20000000 0.75000000 -0.60000000 0.202433
-0.90000000 -0.05000000 -0.65000000 0.202439
0.40000000 -0.10000000 0.45000000 0.202456
0.80000000 -0.35000000 0.35000000 0.202473
0.70000000 -0.25000000 0.40000000 0.202478
-0.95000000 -0.90000000 -0.20000000 0.202483
0.55000000 -0.90000000 -0.45000000 0.202504
0.05000000 -0.20000000 -0.80000000 0.202506
-0.90000000 0.05000000 -0.65000000 0.202520
0.15000000 -0.10000000 -0.80000000 0.202522
-0.85000000 -0.95000000 0.10000000 0.202533
0.75000000 0.70000000 0.10000000 0.202549
0.70000000 0.70000000 0.15000000 0.202552
0.80000000 0.15000000 0.35000000 0.202587
0.90000000 -0.05000000 0.35000000 0.202591
-0.90000000 -0.90000000 -0.25000000 0.202602
-0.85000000 0.80000000 -0.15000000 0.202611
-0.25000000 -0.95000000 -0.60000000 0.202633
0.05000000 -0.70000000 0.45000000 0.202636
0.15000000 -0.90000000 0.40000000 0.202653
-0.70000000 -0.35000000 -0.65000000 0.202654
0.95000000 0.55000000 0.10000000 0.202657
0.25000000 0.35000000 0.40000000 0.202664
0.30000000 0.60000000 0.35000000 0.202674
-0.85000000 -0.90000000 -0.30000000 0.202682
0.00000000 -0.60000000 -0.70000000 0.202688
-0.50000000 -0.70000000 -0.60000000 0.202694
0.70000000 -0.05000000 0.40000000 0.202706
0.80000000 0.40000000 -0.50000000 0.202710
-0.50000000 0.65000000 -0.60000000 0.202727
-0.05000000 0.35000000 0.40000000 0.202746
0.55000000 0.35000000 -0.65000000 0.202750
-0.30000000 -0.70000000 -0.65000000 0.202751
0.15000000 -0.55000000 -0.70000000 0.202769
0.20000000 -0.85000000 0.40000000 0.202794
0.85000000 -0.55000000 0.25000000 0.202797
-0.20000000 0.30000000 0.40000000 0.202825
-0.95000000 0.40000000 -0.55000000 0.202825
-0.85000000 -0.15000000 -0.65000000 0.202828
-0.40000000 -0.80000000 0.40000000 0.202828
-0.70000000 -1.00000000 -0.40000000 0.202843
-0.30000000 -0.25000000 0.45000000 0.202862
0.45000000 -0.15000000 0.45000000 0.202874
-0.55000000 1.00000000 0.15000000 0.202894
-0.70000000 0.15000000 -0.70000000 0.202924
0.80000000 -0.60000000 0.25000000 0.202950
-0.80000000 -0.55000000 -0.55000000 0.202952
0.45000000 0.60000000 -0.60000000 0.202973
0.00000000 0.80000000 -0.60000000 0.202999
0.75000000 -1.00000000 -0.05000000 0.203015
-0.40000000 0.20000000 0.40000000 0.203030
0.50000000 0.90000000 0.15000000 0.203034
0.10000000 -0.10000000 0.45000000 0.203041
-0.55000000 0.20000000 -0.75000000 0.203064
0.95000000 -0.70000000 -0.20000000 0.203084
0.20000000 0.05000000 -0.80000000 0.203092
0.90000000 0.65000000 -0.10000000 0.203109
-0.80000000 -0.15000000 0.40000000 0.203120
-0.60000000 0.35000000 -0.70000000 0.203123
0.85000000 -0.10000000 -0.55000000 0.203134
-0.05000000 -0.15000000 0.45000000 0.203154
-0.70000000 0.35000000 0.35000000 0.203154
-0.05000000 0.90000000 0.30000000 0.203154
0.20000000 0.15000000 -0.80000000 0.203162
-0.90000000 -0.50000000 0.35000000 0.203179
-0.65000000 0.75000000 -0.45000000 0.203179
0.75000000 -0.70000000 -0.40000000 0.203203
0.90000000 -0.30000000 -0.50000000 0.203206
-0.50000000 -0.15000000 -0.75000000 0.203206
-0.90000000 0.70000000 0.10000000 0.203210
0.55000000 -0.30000000 -0.65000000 0.203212
-0.90000000 -1.00000000 -0.15000000 0.203214
-0.70000000 0.90000000 -0.25000000 0.203218
0.80000000 -0.50000000 0.30000000 0.203225
0.60000000 0.55000000 -0.55000000 0.203226
0.35000000 -0.05000000 -0.75000000 0.203236
-0.30000000 0.25000000 0.40000000 0.203267
0.90000000 -0.10000000 0.35000000 0.203295
0.95000000 0.35000000 -0.45000000 0.203320
0.75000000 -0.95000000 0.00000000 0.203328
-0.85000000 -0.70000000 -0.45000000 0.203371
-0.10000000 0.80000000 -0.60000000 0.203373
0.10000000 -0.15000000 -0.80000000 0.203373
-0.85000000 0.70000000 -0.35000000 0.203374
0.90000000 -0.75000000 -0.15000000 0.203388
0.50000000 0.85000000 -0.40000000 0.203394
0.20000000 0.95000000 -0.50000000 0.203397
-0.50000000 1.00000000 -0.40000000 0.203418
-0.10000000 -0.60000000 -0.70000000 0.203419
-0.45000000 0.50000000 -0.70000000 0.203435
0.55000000 0.50000000 -0.60000000 0.203452
0.30000000 0.90000000 0.25000000 0.203488
0.85000000 0.50000000 0.20000000 0.203500
0.25000000 -0.60000000 0.45000000 0.203501
0.30000000 0.50000000 -0.70000000 0.203503
0.50000000 0.00000000 -0.70000000 0.203507
-0.25000000 -0.95000000 0.40000000 0.203529
-0.95000000 0.50000000 0.25000000 0.203545
-0.85000000 0.25000000 0.35000000 0.203547
-0.35000000 0.65000000 -0.65000000 0.203551
-0.90000000 0.00000000 -0.65000000 0.203551
-0.20000000 0.70000000 -0.65000000 0.203561
0.20000000 0.10000000 -0.80000000 0.203578
-0.60000000 -0.60000000 0.40000000 0.203581
0.30000000 0.70000000 -0.60000000 0.203607
0.55000000 0.60000000 -0.55000000 0.203638
-0.90000000 -0.85000000 -0.30000000 0.203638
-0.15000000 -0.70000000 0.45000000 0.203639
0.95000000 0.20000000 -0.50000000 0.203649
-0.40000000 0.05000000 -0.80000000 0.203655
-0.95000000 -0.65000000 -0.45000000 0.203656
-1.00000000 -0.30000000 -0.60000000 0.203681
-0.05000000 -0.60000000 -0.70000000 0.203683
-0.85000000 0.60000000 -0.45000000 0.203702
0.55000000 -0.65000000 -0.55000000 0.203704
-0.65000000 1.00000000 -0.25000000 0.203713
0.75000000 0.55000000 -0.45000000 0.203719
0.10000000 -0.95000000 0.40000000 0.203743
-0.15000000 0.40000000 -0.80000000 0.203760
0.00000000 0.35000000 0.40000000 0.203761
0.35000000 0.20000000 -0.75000000 0.203767
0.80000000 -0.25000000 -0.55000000 0.203776
-0.75000000 0.80000000 0.10000000 0.203776
-0.70000000 -0.05000000 -0.70000000 0.203783
0.65000000 0.35000000 -0.60000000 0.203803
-0.45000000 -0.75000000 0.40000000 0.203817
-0.20000000 -0.20000000 -0.80000000 0.203819
-0.55000000 0.10000000 0.40000000 0.203820
0.50000000 0.10000000 -0.70000000 0.203860
0.45000000 1.00000000 0.15000000 0.203915
-0.70000000 -0.90000000 0.25000000 0.203934
-0.50000000 0.30000000 -0.75000000 0.203934
0.95000000 0.50000000 -0.35000000 0.203942
-0.25000000 0.50000000 -0.75000000 0.203955
-0.25000000 0.60000000 -0.70000000 0.203970
-0.05000000 0.40000000 -0.80000000 0.203974
-0.85000000 0.15000000 -0.65000000 0.203982
0.25000000 -0.80000000 0.40000000 0.203983
0.20000000 0.35000000 0.40000000 0.203995
-0.80000000 -0.25000000 0.40000000 0.203996
-0.50000000 0.50000000 0.35000000 0.204000
0.00000000 0.90000000 -0.55000000 0.204003
0.60000000 0.70000000 -0.45000000 0.204018
0.95000000 0.50000000 0.15000000 0.204025
-1.00000000 -0.45000000 -0.55000000 0.204047
1.00000000 -0.70000000 -0.15000000 0.204066
0.65000000 0.80000000 -0.30000000 0.204067
-0.75000000 0.75000000 0.15000000 0.204073
-0.40000000 -0.35000000 0.45000000 0.204076
0.75000000 -0.85000000 0.10000000 0.204090
0.60000000 -0.15000000 -0.65000000 0.204097
-0.35000000 0.45000000 -0.75000000 0.204111
0.80000000 -0.85000000 0.00000000 0.204112
-0.05000000 0.80000000 -0.60000000 0.204120
-0.50000000 0.80000000 0.25000000 0.204137
0.50000000 0.05000000 -0.70000000 0.204182
-0.40000000 0.15000000 -0.80000000 0.204183
-0.80000000 -0.65000000 -0.50000000 0.204219
0.15000000 -0.35000000 -0.75000000 0.204224
-0.55000000 -0.65000000 -0.60000000 0.204226
0.65000000 0.05000000 0.40000000 0.204231
0.60000000 -0.45000000 0.40000000 0.204253
-0.10000000 0.90000000 -0.55000000 0.204254
-0.80000000 -0.20000000 0.40000000 0.204272
1.00000000 -0.20000000 -0.50000000 0.204275
0.25000000 -0.65000000 -0.65000000 0.204280
0.45000000 -0.20000000 -0.70000000 0.204288
0.75000000 -0.90000000 0.05000000 0.204292
0.85000000 -0.25000000 0.35000000 0.204339
0.35000000 0.85000000 0.25000000 0.204341
-0.35000000 0.95000000 0.25000000 0.204352
-0.80000000 0.80000000 -0.25000000 0.204379
0.35000000 -0.90000000 -0.55000000 0.204383
0.25000000 -0.25000000 -0.75000000 0.204398
-0.65000000 -0.40000000 -0.65000000 0.204399
-0.30000000 0.75000000 -0.60000000 0.204411
-0.30000000 0.95000000 -0.50000000 0.204418
-0.80000000 -0.95000000 0.15000000 0.204419
-0.35000000 -0.30000000 0.45000000 0.204454
0.05000000 0.35000000 0.40000000 0.204460
0.45000000 0.90000000 -0.40000000 0.204461
-1.00000000 0.20000000 0.35000000 0.204475
0.00000000 -0.70000000 0.45000000 0.204489
-0.50000000 -0.55000000 -0.65000000 0.204498
0.15000000 -0.10000000 0.45000000 0.204507
0.35000000 0.45000000 -0.70000000 0.204514
-0.40000000 0.10000000 -0.80000000 0.204536
0.45000000 0.30000000 -0.70000000 0.204539
0.75000000 -1.00000000 -0.10000000 0.204558
-0.10000000 0.40000000 -0.80000000 0.204560
-0.50000000 -0.70000000 0.40000000 0.204565
0.35000000 0.75000000 -0.55000000 0.204571
-0.55000000 -0.65000000 0.40000000 0.204584
-1.00000000 -0.90000000 -0.15000000 0.204589
0.65000000 0.60000000 0.25000000 0.204590
0.40000000 -0.30000000 -0.70000000 0.204598
0.60000000 0.95000000 -0.15000000 0.204612
-0.15000000 0.30000000 0.40000000 0.204623
0.05000000 -0.40000000 -0.75000000 0.204638
0.75000000 0.65000000 0.15000000 0.204652
-0.15000000 -0.20000000 0.45000000 0.204662
0.15000000 0.35000000 0.40000000 0.204663
0.60000000 0.85000000 -0.30000000 0.204665
0.35000000 -0.10000000 0.45000000 0.204669
0.00000000 -0.20000000 -0.80000000 0.204705
0.45000000 0.25000000 0.40000000 0.204706
0.15000000 -0.65000000 0.45000000 0.204739
-0.40000000 -0.50000000 0.45000000 0.204762
-0.20000000 -0.40000000 -0.75000000 0.204764
0.95000000 -0.35000000 0.30000000 0.204770
-0.55000000 -0.95000000 -0.50000000 0.204783
0.10000000 0.35000000 0.40000000 0.204786
-0.85000000 0.45000000 -0.55000000 0.204787
0.50000000 0.55000000 -0.60000000 0.204800
-0.80000000 0.65000000 0.20000000 0.204810
0.75000000 -0.35000000 -0.55000000 0.204831
-0.60000000 0.85000000 -0.40000000 0.204911
-0.30000000 -0.35000000 -0.75000000 0.204916
0.95000000 -0.40000000 -0.45000000 0.204939
0.90000000 -0.70000000 -0.25000000 0.204946
0.05000000 -0.75000000 -0.65000000 0.204973
-0.35000000 -0.05000000 -0.80000000 0.204974
0.85000000 0.05000000 -0.55000000 0.204984
-0.10000000 -0.70000000 0.45000000 0.204988
0.60000000 0.95000000 -0.05000000 0.205019
0.10000000 0.60000000 -0.70000000 0.205022
0.75000000 -0.65000000 0.25000000 0.205043
-0.60000000 -0.25000000 -0.70000000 0.205057
-0.95000000 -0.85000000 0.10000000 0.205067
-0.75000000 0.30000000 -0.65000000 0.205069
0.35000000 0.00000000 -0.75000000 0.205071
0.35000000 0.30000000 0.40000000 0.205091
0.25000000 0.90000000 -0.50000000 0.205100
-0.95000000 0.75000000 -0.10000000 0.205120
0.60000000 0.20000000 -0.65000000 0.205125
-0.55000000 0.00000000 -0.75000000 0.205132
0.70000000 0.75000000 -0.30000000 0.205146
-0.90000000 0.30000000 -0.60000000 0.205158
0.20000000 -0.30000000 -0.75000000 0.205181
0.35000000 -0.90000000 0.35000000 0.205190
-0.45000000 0.15000000 0.40000000 0.205192
-0.05000000 0.90000000 -0.55000000 0.205192
-0.30000000 0.80000000 0.30000000 0.205203
0.40000000 -0.45000000 0.45000000 0.205208
-0.25000000 -0.65000000 0.45000000 0.205208
0.00000000 -0.15000000 0.45000000 0.205217
0.70000000 -0.10000000 0.40000000 0.205225
0.15000000 0.65000000 0.35000000 0.205225
0.70000000 -0.20000000 0.40000000 0.205226
-0.35000000 -0.50000000 -0.70000000 0.205230
0.15000000 -0.05000000 -0.80000000 0.205252
0.70000000 -0.95000000 0.10000000 0.205258
-0.05000000 -0.70000000 0.45000000 0.205270
0.65000000 -0.55000000 0.35000000 0.205291
-0.20000000 0.65000000 0.35000000 0.205292
0.85000000 -0.80000000 -0.05000000 0.205325
0.55000000 0.80000000 -0.40000000 0.205340
-0.90000000 0.40000000 0.30000000 0.205344
-0.95000000 0.55000000 -0.45000000 0.205347
0.60000000 -1.00000000 0.20000000 0.205356
0.80000000 -0.55000000 -0.45000000 0.205384
-0.60000000 0.05000000 0.40000000 0.205384
-0.60000000 -0.60000000 -0.60000000 0.205387
-0.85000000 -0.65000000 0.30000000 0.205407
-0.20000000 0.85000000 0.30000000 0.205412
0.85000000 -0.65000000 -0.35000000 0.205414
0.95000000 -0.55000000 0.20000000 0.205426
-0.60000000 -0.45000000 -0.65000000 0.205438
-0.25000000 0.25000000 0.40000000 0.205442
0.55000000 -0.50000000 -0.60000000 0.205456
-0.60000000 0.60000000 0.30000000 0.205459
0.45000000 0.50000000 0.35000000 0.205482
-0.25000000 -0.25000000 0.45000000 0.205487
-0.55000000 -0.50000000 -0.65000000 0.205525
0.80000000 0.65000000 0.10000000 0.205532
0.95000000 -0.50000000 -0.40000000 0.205537
0.15000000 0.25000000 -0.80000000 0.205538
-0.15000000 -0.20000000 -0.80000000 0.205539
0.85000000 -0.05000000 -0.55000000 0.205539
0.70000000 -0.20000000 -0.60000000 0.205545
-1.00000000 0.70000000 0.05000000 0.205548
-0.85000000 0.80000000 -0.10000000 0.205551
0.85000000 0.05000000 0.35000000 0.205551
0.20000000 -0.10000000 0.45000000 0.205554
-0.95000000 -0.60000000 0.30000000 0.205568
0.80000000 -0.80000000 -0.25000000 0.205607
0.35000000 0.15000000 -0.75000000 0.205634
-0.35000000 0.20000000 0.40000000 0.205634
0.30000000 -0.55000000 0.45000000 0.205640
0.30000000 1.00000000 -0.45000000 0.205655
0.55000000 0.90000000 0.10000000 0.205661
0.70000000 0.60000000 -0.45000000 0.205663
-0.65000000 0.90000000 0.10000000 0.205664
-0.75000000 -0.10000000 0.40000000 0.205689
-0.60000000 0.65000000 -0.55000000 0.205704
0.45000000 -0.20000000 0.45000000 0.205730
-0.70000000 0.10000000 -0.70000000 0.205731
-0.95000000 0.65000000 -0.35000000 0.205738
0.90000000 -0.50000000 0.25000000 0.205745
0.90000000 0.25000000 -0.50000000 0.205745
-0.25000000 -0.15000000 -0.80000000 0.205760
1.00000000 0.15000000 -0.50000000 0.205793
0.30000000 -0.10000000 0.45000000 0.205802
0.45000000 -0.35000000 0.45000000 0.205804
0.95000000 0.20000000 0.30000000 0.205822
0.30000000 -0.15000000 -0.75000000 0.205829
0.70000000 0.55000000 0.25000000 0.205840
0.10000000 -1.00000000 -0.60000000 0.205840
1.00000000 0.60000000 -0.15000000 0.205847
-0.55000000 0.90000000 -0.40000000 0.205847
0.65000000 0.65000000 -0.45000000 0.205860
0.30000000 -0.75000000 0.40000000 0.205877
-0.80000000 -1.00000000 -0.30000000 0.205889
-0.55000000 0.40000000 -0.70000000 0.205894
-0.15000000 -0.75000000 -0.65000000 0.205899
-0.55000000 0.15000000 -0.75000000 0.205902
-0.45000000 -1.00000000 0.35000000 0.205929
-0.05000000 -0.20000000 -0.80000000 0.205951
-0.40000000 -0.40000000 0.45000000 0.205973
-0.25000000 -0.55000000 -0.70000000 0.205983
0.05000000 0.70000000 -0.65000000 0.205991
-0.20000000 -1.00000000 0.40000000 0.205992
1.00000000 -0.65000000 -0.25000000 0.206020
-0.45000000 -0.20000000 -0.75000000 0.206031
-0.70000000 0.00000000 -0.70000000 0.206037
0.25000000 -0.10000000 0.45000000 0.206039
-0.25000000 0.35000000 -0.80000000 0.206039
0.15000000 0.85000000 -0.55000000 0.206043
0.25000000 0.95000000 0.25000000 0.206045
0.45000000 -0.45000000 -0.65000000 0.206054
0.60000000 -0.70000000 -0.50000000 0.206054
1.00000000 -0.45000000 0.25000000 0.206076
0.65000000 -1.00000000 0.15000000 0.206087
-0.50000000 0.45000000 -0.70000000 0.206087
0.05000000 -1.00000000 0.40000000 0.206092
-0.65000000 -0.55000000 -0.60000000 0.206106
0.70000000 -0.15000000 0.40000000 0.206110
-0.75000000 0.30000000 0.35000000 0.206120
-0.80000000 0.45000000 0.30000000 0.206135
-0.60000000 -0.85000000 -0.50000000 0.206140
0.95000000 0.60000000 -0.20000000 0.206141
0.05000000 0.35000000 -0.80000000 0.206147
0.35000000 0.05000000 -0.75000000 0.206147
0.30000000 0.75000000 0.30000000 0.206169
0.85000000 0.00000000 -0.55000000 0.206175
-0.35000000 0.90000000 -0.50000000 0.206191
-0.75000000 0.60000000 0.25000000 0.206210
-0.30000000 -0.10000000 -0.80000000 0.206213
-0.10000000 0.30000000 0.40000000 0.206221
-0.10000000 -0.20000000 -0.80000000 0.206237
0.35000000 -0.50000000 0.45000000 0.206265
-0.95000000 0.20000000 0.35000000 0.206269
-0.40000000 -0.45000000 0.45000000 0.206283
-0.35000000 0.25000000 -0.80000000 0.206300
0.75000000 0.20000000 0.35000000 0.206308
-0.65000000 0.25000000 -0.70000000 0.206317
0.75000000 0.50000000 0.25000000 0.206359
0.65000000 -0.35000000 0.40000000 0.206372
0.35000000 0.10000000 -0.75000000 0.206376
0.75000000 -0.55000000 0.30000000 0.206376
-1.00000000 0.25000000 -0.60000000 0.206384
0.30000000 0.30000000 -0.75000000 0.206390
-0.90000000 0.50000000 -0.50000000 0.206421
-0.80000000 -0.20000000 -0.65000000 0.206444
-0.65000000 0.00000000 0.40000000 0.206451
-0.70000000 -0.45000000 0.40000000 0.206471
-0.45000000 0.75000000 -0.55000000 0.206490
-0.20000000 -1.00000000 -0.60000000 0.206507
0.15000000 1.00000000 -0.50000000 0.206508
0.50000000 -0.70000000 -0.55000000 0.206531
-0.70000000 -0.50000000 -0.60000000 0.206552
0.05000000 -0.15000000 -0.80000000 0.206597
-0.85000000 0.65000000 -0.40000000 0.206598
-0.95000000 -0.75000000 0.20000000 0.206600
0.85000000 -0.80000000 -0.10000000 0.206655
-0.70000000 -0.05000000 0.40000000 0.206682
-0.70000000 0.05000000 -0.70000000 0.206731
0.50000000 -0.85000000 0.30000000 0.206734
-0.40000000 0.70000000 -0.60000000 0.206746
0.00000000 -0.40000000 -0.75000000 0.206756
0.75000000 0.70000000 -0.30000000 0.206763
0.40000000 -0.15000000 0.45000000 0.206771
-0.55000000 0.05000000 -0.75000000 0.206772
0.20000000 -0.50000000 -0.70000000 0.206780
-0.35000000 -0.30000000 -0.75000000 0.206789
0.10000000 -0.10000000 -0.80000000 0.206798
1.00000000 0.60000000 -0.05000000 0.206845
0.75000000 -0.50000000 -0.50000000 0.206862
-0.10000000 -0.20000000 0.45000000 0.206862
0.45000000 -0.95000000 0.30000000 0.206867
-0.15000000 -0.40000000 -0.75000000 0.206870
0.10000000 0.85000000 0.30000000 0.206876
-0.45000000 0.35000000 -0.75000000 0.206877
-0.90000000 0.65000000 0.15000000 0.206886
0.05000000 0.50000000 -0.75000000 0.206929
-0.55000000 0.45000000 0.35000000 0.206940
-0.65000000 -0.15000000 -0.70000000 0.206943
-0.45000000 -0.90000000 -0.55000000 0.206965
-0.75000000 -0.35000000 0.40000000 0.206970
0.80000000 0.45000000 0.25000000 0.206973
-0.40000000 0.40000000 -0.75000000 0.206997
0.70000000 0.80000000 0.00000000 0.207002
-0.40000000 1.00000000 -0.45000000 0.207008
-0.25000000 0.85000000 -0.55000000 0.207008
-0.35000000 -0.55000000 0.45000000 0.207011
0.50000000 0.20000000 0.40000000 0.207029
0.15000000 -0.70000000 -0.65000000 0.207074
-0.75000000 -0.45000000 -0.60000000 0.207085
-0.55000000 0.10000000 -0.75000000 0.207085
0.80000000 -0.70000000 -0.35000000 0.207104
0.85000000 -0.70000000 -0.30000000 0.207117
-0.90000000 0.75000000 0.00000000 0.207119
-0.95000000 -0.30000000 -0.60000000 0.207119
0.05000000 -0.15000000 0.45000000 0.207134
-1.00000000 -0.55000000 -0.50000000 0.207156
0.10000000 0.30000000 -0.80000000 0.207164
-0.60000000 1.00000000 0.10000000 0.207168
0.30000000 -0.60000000 -0.65000000 0.207173
-0.40000000 -0.25000000 -0.75000000 0.207179
-0.30000000 -0.60000000 0.45000000 0.207181
0.60000000 0.10000000 0.40000000 0.207230
0.80000000 0.60000000 0.15000000 0.207253
-0.75000000 -1.00000000 -0.35000000 0.207271
0.45000000 0.65000000 0.30000000 0.207275
-0.50000000 0.10000000 0.40000000 0.207286
0.45000000 -0.25000000 0.45000000 0.207319
0.10000000 -0.55000000 -0.70000000 0.207360
0.15000000 0.00000000 -0.80000000 0.207366
-1.00000000 -0.45000000 0.35000000 0.207370
-0.35000000 0.55000000 -0.70000000 0.207402
-0.40000000 0.55000000 0.35000000 0.207409
0.45000000 -0.30000000 0.45000000 0.207410
-0.20000000 0.25000000 0.40000000 0.207413
-0.25000000 1.00000000 -0.50000000 0.207428
0.50000000 1.00000000 0.10000000 0.207443
0.90000000 -0.75000000 -0.05000000 0.207451
-0.15000000 0.70000000 -0.65000000 0.207457
-0.75000000 0.60000000 -0.50000000 0.207506
0.70000000 0.80000000 -0.20000000 0.207539
0.60000000 -0.10000000 -0.65000000 0.207547
0.30000000 0.60000000 -0.65000000 0.207547
0.95000000 0.60000000 0.00000000 0.207572
-0.30000000 0.30000000 -0.80000000 0.207574
0.00000000 -0.75000000 -0.65000000 0.207585
-0.30000000 -0.30000000 0.45000000 0.207587
0.25000000 0.80000000 -0.55000000 0.207609
-0.05000000 0.30000000 0.40000000 0.207620
0.55000000 0.85000000 -0.35000000 0.207651
-0.65000000 0.80000000 -0.40000000 0.207652
0.30000000 0.30000000 0.40000000 0.207672
-1.00000000 -0.70000000 -0.40000000 0.207679
0.40000000 0.80000000 0.25000000 0.207740
-0.55000000 0.85000000 0.20000000 0.207801
-0.05000000 -0.40000000 -0.75000000 0.207843
0.70000000 0.20000000 -0.60000000 0.207865
-0.35000000 0.00000000 -0.80000000 0.207878
0.85000000 -0.35000000 -0.50000000 0.207885
-0.10000000 -0.40000000 -0.75000000 0.207888
0.35000000 -0.35000000 -0.70000000 0.207911
0.75000000 0.75000000 0.00000000 0.207917
0.60000000 -0.80000000 -0.45000000 0.207918
-0.55000000 -0.30000000 -0.70000000 0.207924
-0.20000000 -0.25000000 0.45000000 0.207931
-0.35000000 -0.65000000 -0.65000000 0.207942
-0.45000000 0.70000000 0.30000000 0.207947
-0.70000000 0.95000000 -0.05000000 0.207948
-0.30000000 0.60000000 0.35000000 0.207950
-0.30000000 0.20000000 0.40000000 0.207953
0.20000000 0.80000000 0.30000000 0.207971
0.45000000 0.75000000 -0.50000000 0.207977
-0.85000000 -0.10000000 -0.65000000 0.207981
-0.50000000 -0.10000000 -0.75000000 0.207986
-0.40000000 0.15000000 0.40000000 0.207993
0.15000000 -0.90000000 -0.60000000 0.207998
0.35000000 -0.70000000 0.40000000 0.207999
-0.35000000 -0.35000000 0.45000000 0.208015
0.55000000 0.15000000 0.40000000 0.208019
0.20000000 -0.85000000 -0.60000000 0.208021
0.60000000 0.95000000 -0.10000000 0.208034
0.15000000 0.20000000 -0.80000000 0.208048
-0.10000000 -0.75000000 -0.65000000 0.208056
0.75000000 -0.95000000 -0.15000000 0.208057
-0.90000000 -1.00000000 -0.05000000 0.208080
0.20000000 0.55000000 -0.70000000 0.208093
-0.40000000 -0.45000000 -0.70000000 0.208094
-0.95000000 -0.45000000 -0.55000000 0.208120
0.15000000 0.45000000 -0.75000000 0.208132
0.60000000 -0.60000000 0.35000000 0.208169
-0.70000000 0.95000000 -0.15000000 0.208169
-0.80000000 -0.40000000 -0.60000000 0.208173
0.55000000 -0.50000000 0.40000000 0.208199
-0.85000000 -0.50000000 -0.55000000 0.208209
-0.20000000 0.50000000 -0.75000000 0.208229
0.60000000 0.80000000 -0.35000000 0.208236
0.70000000 -0.90000000 -0.30000000 0.208237
0.20000000 0.65000000 -0.65000000 0.208237
0.40000000 -0.50000000 -0.65000000 0.208239
0.90000000 -0.60000000 -0.35000000 0.208257
0.10000000 -0.65000000 0.45000000 0.208296
-0.15000000 0.65000000 0.35000000 0.208302
-0.55000000 0.75000000 0.25000000 0.208312
0.70000000 -0.70000000 0.25000000 0.208329
1.00000000 -0.55000000 -0.35000000 0.208330
0.60000000 0.75000000 -0.40000000 0.208347
0.10000000 0.65000000 0.35000000 0.208350
-0.80000000 -0.85000000 0.20000000 0.208357
0.10000000 -0.35000000 -0.75000000 0.208372
-0.65000000 -0.70000000 0.35000000 0.208396
0.45000000 -0.15000000 -0.70000000 0.208409
-0.20000000 -0.15000000 -0.80000000 0.208424
-0.70000000 -0.65000000 0.35000000 0.208438
0.95000000 -0.65000000 0.10000000 0.208444
0.75000000 0.75000000 -0.20000000 0.208446
-1.00000000 0.70000000 -0.25000000 0.208465
-0.70000000 0.85000000 -0.30000000 0.208480
1.00000000 -0.70000000 -0.05000000 0.208517
0.80000000 -0.85000000 -0.15000000 0.208533
-0.50000000 0.55000000 -0.65000000 0.208548
-0.75000000 -0.15000000 0.40000000 0.208553
-0.95000000 -0.80000000 0.15000000 0.208553
0.35000000 -0.55000000 -0.65000000 0.208563
-0.20000000 -0.65000000 0.45000000 0.208580
-0.05000000 -0.75000000 -0.65000000 0.208618
-0.90000000 0.75000000 -0.20000000 0.208641
0.90000000 -0.75000000 -0.10000000 0.208656
0.20000000 -0.60000000 0.45000000 0.208684
0.25000000 0.60000000 0.35000000 0.208716
0.60000000 0.15000000 -0.65000000 0.208722
0.65000000 0.85000000 0.00000000 0.208760
0.00000000 0.30000000 0.40000000 0.208800
0.85000000 0.40000000 0.25000000 0.208812
0.15000000 0.05000000 -0.80000000 0.208813
0.10000000 -0.15000000 0.45000000 0.208818
-0.20000000 -0.95000000 0.40000000 0.208824
0.50000000 0.45000000 0.35000000 0.208825
-0.60000000 -0.75000000 0.35000000 0.208846
0.80000000 0.65000000 -0.30000000 0.208867
0.00000000 -0.15000000 -0.80000000 0.208875
0.25000000 -0.80000000 -0.60000000 0.208875
0.05000000 -0.95000000 0.40000000 0.208879
0.45000000 -0.75000000 -0.55000000 0.208885
0.00000000 0.70000000 -0.65000000 0.208890
-0.20000000 0.60000000 -0.70000000 0.208906
-0.90000000 -1.00000000 -0.10000000 0.208923
0.55000000 0.90000000 -0.30000000 0.208946
0.35000000 0.55000000 0.35000000 0.208965
-0.95000000 0.60000000 -0.40000000 0.208968
-0.75000000 -0.60000000 0.35000000 0.208970
-0.05000000 -0.20000000 0.45000000 0.208980
0.25000000 -0.45000000 -0.70000000 0.208980
-0.35000000 0.80000000 -0.55000000 0.209028
0.75000000 -0.40000000 0.35000000 0.209031
-0.85000000 0.10000000 -0.65000000 0.209052
0.10000000 -0.95000000 -0.60000000 0.209060
0.25000000 -0.20000000 -0.75000000 0.209075
-0.25000000 -0.35000000 -0.75000000 0.209086
-1.00000000 -0.80000000 -0.30000000 0.209087
-0.25000000 -0.90000000 0.40000000 0.209104
0.65000000 0.85000000 -0.20000000 0.209108
-0.25000000 -0.90000000 -0.60000000 0.209110
-0.70000000 0.35000000 -0.65000000 0.209124
0.90000000 0.60000000 -0.25000000 0.209126
0.30000000 -0.10000000 -0.75000000 0.209150
0.40000000 0.25000000 0.40000000 0.209155
-0.55000000 0.05000000 0.40000000 0.209188
-0.90000000 -0.70000000 0.25000000 0.209191
0.30000000 -1.00000000 -0.55000000 0.209204
-0.60000000 0.80000000 0.20000000 0.209212
-0.15000000 0.25000000 0.40000000 0.209221
0.10000000 -0.90000000 0.40000000 0.209225
0.75000000 0.45000000 -0.50000000 0.209235
-0.25000000 -0.70000000 -0.65000000 0.209235
