//X Y Z Consensus 
-0.20000000 0.75000000 0.60000000 0.003496
1.00000000 0.45000000 0.25000000 0.003497
0.55000000 -1.00000000 -0.45000000 0.003498
-1.00000000 -0.25000000 0.50000000 0.003498
0.10000000 0.60000000 0.70000000 0.003498
0.70000000 0.65000000 0.40000000 0.003499
-0.80000000 -0.80000000 0.35000000 0.003500
-0.05000000 -0.40000000 0.90000000 0.003501
0.00000000 0.10000000 0.80000000 0.003501
0.25000000 -0.10000000 0.90000000 0.003502
-0.50000000 -1.00000000 0.40000000 0.003503
-0.95000000 0.05000000 -0.75000000 0.003503
-0.65000000 0.15000000 -1.00000000 0.003505
0.95000000 0.20000000 0.40000000 0.003505
-0.95000000 0.55000000 -0.50000000 0.003505
-0.60000000 -0.65000000 0.65000000 0.003505
0.90000000 -0.50000000 0.35000000 0.003506
0.35000000 0.70000000 -0.80000000 0.003507
-0.35000000 0.70000000 0.60000000 0.003507
0.95000000 -0.35000000 -0.55000000 0.003507
-0.80000000 -0.95000000 0.20000000 0.003507
-0.85000000 0.45000000 -0.70000000 0.003509
-0.35000000 0.50000000 -1.00000000 0.003510
-0.45000000 0.80000000 -0.70000000 0.003510
0.55000000 0.55000000 -0.80000000 0.003510
-0.40000000 -0.40000000 0.85000000 0.003511
0.85000000 -0.50000000 -0.60000000 0.003511
0.05000000 0.15000000 0.80000000 0.003512
-0.85000000 -0.95000000 0.15000000 0.003512
0.45000000 -0.50000000 -0.95000000 0.003512
0.90000000 0.05000000 0.50000000 0.003513
-0.45000000 -0.25000000 0.85000000 0.003513
-0.45000000 1.00000000 -0.45000000 0.003513
-0.25000000 0.90000000 0.45000000 0.003514
-0.05000000 -0.90000000 -0.80000000 0.003514
-1.00000000 0.70000000 -0.30000000 0.003515
0.30000000 -0.85000000 0.60000000 0.003515
-0.20000000 0.00000000 0.80000000 0.003515
-0.75000000 -0.45000000 0.65000000 0.003516
1.00000000 0.10000000 -0.55000000 0.003516
-0.05000000 -0.85000000 -0.85000000 0.003517
0.15000000 0.25000000 0.80000000 0.003517
0.35000000 0.80000000 -0.70000000 0.003518
-0.80000000 0.45000000 -0.75000000 0.003518
1.00000000 -0.30000000 0.35000000 0.003519
-0.90000000 -0.15000000 -0.80000000 0.003520
-0.10000000 -0.35000000 0.90000000 0.003521
0.10000000 -0.10000000 0.90000000 0.003521
-0.50000000 0.10000000 0.80000000 0.003522
-0.10000000 -0.30000000 0.90000000 0.003522
0.60000000 0.85000000 -0.45000000 0.003522
-0.90000000 -0.35000000 -0.75000000 0.003523
0.25000000 -0.60000000 0.80000000 0.003523
0.20000000 0.90000000 0.45000000 0.003524
0.70000000 -0.85000000 0.30000000 0.003525
0.25000000 -0.25000000 0.90000000 0.003525
0.90000000 -0.25000000 -0.65000000 0.003525
-0.95000000 -0.45000000 0.45000000 0.003528
-0.75000000 -0.80000000 0.40000000 0.003528
0.85000000 0.65000000 -0.40000000 0.003528
0.45000000 -0.75000000 0.60000000 0.003528
0.40000000 -0.55000000 -0.95000000 0.003529
-0.50000000 0.30000000 0.75000000 0.003530
0.25000000 -0.60000000 -1.00000000 0.003530
-0.70000000 0.25000000 0.70000000 0.003530
0.80000000 0.30000000 0.55000000 0.003531
1.00000000 0.25000000 -0.50000000 0.003531
-0.45000000 -0.90000000 -0.70000000 0.003531
-0.05000000 0.60000000 0.70000000 0.003531
0.95000000 -0.70000000 -0.30000000 0.003532
0.15000000 -0.80000000 0.70000000 0.003532
-0.05000000 -0.05000000 0.85000000 0.003533
-0.85000000 0.05000000 -0.85000000 0.003534
0.05000000 -0.40000000 0.90000000 0.003534
-0.10000000 0.20000000 0.75000000 0.003535
-0.85000000 0.75000000 0.25000000 0.003536
0.90000000 -0.55000000 -0.50000000 0.003536
0.45000000 -0.05000000 0.85000000 0.003536
0.30000000 0.65000000 0.65000000 0.003536
0.10000000 -0.75000000 0.75000000 0.003537
-0.40000000 0.90000000 -0.60000000 0.003538
0.35000000 0.10000000 0.85000000 0.003539
-0.75000000 0.85000000 -0.40000000 0.003539
0.50000000 0.80000000 -0.60000000 0.003541
0.75000000 -0.15000000 0.65000000 0.003541
0.45000000 0.75000000 0.50000000 0.003541
-0.90000000 -0.20000000 0.60000000 0.003541
0.70000000 -0.60000000 -0.70000000 0.003543
0.90000000 -0.40000000 0.40000000 0.003543
0.85000000 -0.75000000 0.25000000 0.003544
-0.35000000 -0.70000000 0.75000000 0.003544
0.45000000 0.35000000 0.75000000 0.003544
1.00000000 0.35000000 0.30000000 0.003545
-0.15000000 0.00000000 0.80000000 0.003545
0.10000000 0.20000000 0.80000000 0.003545
-0.45000000 0.65000000 0.60000000 0.003546
0.70000000 0.20000000 -0.85000000 0.003547
0.35000000 -0.85000000 -0.75000000 0.003547
-0.60000000 0.55000000 0.60000000 0.003547
0.00000000 0.70000000 0.65000000 0.003547
-0.35000000 -0.15000000 0.85000000 0.003548
-0.30000000 -0.75000000 -0.90000000 0.003548
0.05000000 0.60000000 0.70000000 0.003548
0.00000000 -0.40000000 0.90000000 0.003548
-0.05000000 0.05000000 0.80000000 0.003549
-0.80000000 -0.15000000 0.70000000 0.003549
0.30000000 0.55000000 0.70000000 0.003551
0.55000000 -0.20000000 0.80000000 0.003552
-0.10000000 0.25000000 0.75000000 0.003552
0.55000000 0.25000000 0.75000000 0.003553
-0.60000000 0.60000000 -0.80000000 0.003554
0.05000000 0.70000000 0.65000000 0.003554
-0.15000000 0.20000000 0.75000000 0.003554
-0.85000000 -0.20000000 0.65000000 0.003555
-0.40000000 0.60000000 0.65000000 0.003555
0.00000000 0.60000000 0.70000000 0.003555
-0.35000000 -1.00000000 -0.65000000 0.003556
0.95000000 0.70000000 -0.15000000 0.003556
0.65000000 0.85000000 -0.40000000 0.003556
0.35000000 0.70000000 0.60000000 0.003557
0.70000000 -0.30000000 -0.85000000 0.003557
-0.85000000 -0.35000000 -0.80000000 0.003559
-0.55000000 0.40000000 0.70000000 0.003559
-0.65000000 0.70000000 0.45000000 0.003559
-0.65000000 0.80000000 0.35000000 0.003559
-0.60000000 -1.00000000 -0.50000000 0.003560
0.95000000 0.10000000 -0.60000000 0.003560
-0.55000000 -0.60000000 -0.90000000 0.003560
-0.40000000 0.60000000 -0.90000000 0.003560
0.55000000 0.10000000 -1.00000000 0.003562
-0.65000000 0.75000000 0.40000000 0.003563
0.85000000 0.20000000 -0.70000000 0.003563
0.60000000 -0.50000000 -0.85000000 0.003564
0.80000000 -0.65000000 -0.55000000 0.003567
-0.40000000 0.10000000 0.80000000 0.003568
-0.90000000 -0.90000000 0.15000000 0.003571
0.80000000 -0.15000000 0.60000000 0.003571
0.75000000 0.40000000 0.55000000 0.003571
-0.80000000 -0.35000000 0.65000000 0.003571
0.70000000 0.05000000 0.70000000 0.003572
-0.30000000 0.40000000 0.75000000 0.003573
-0.60000000 -0.55000000 -0.90000000 0.003573
0.45000000 0.20000000 0.80000000 0.003574
-0.25000000 0.00000000 0.80000000 0.003574
0.50000000 0.95000000 -0.40000000 0.003575
0.55000000 -0.35000000 -0.95000000 0.003575
0.40000000 0.05000000 0.85000000 0.003576
-0.30000000 0.55000000 0.70000000 0.003577
0.20000000 -1.00000000 0.50000000 0.003577
-0.85000000 -0.45000000 0.55000000 0.003579
-0.15000000 0.15000000 0.75000000 0.003580
-0.45000000 0.70000000 -0.80000000 0.003580
-0.30000000 -0.15000000 0.85000000 0.003581
-0.80000000 -1.00000000 -0.30000000 0.003581
-0.50000000 -0.50000000 -1.00000000 0.003582
0.35000000 0.40000000 0.75000000 0.003582
0.60000000 0.10000000 -0.95000000 0.003582
-0.80000000 0.00000000 0.70000000 0.003583
-0.40000000 -0.80000000 0.65000000 0.003583
0.90000000 -0.75000000 0.20000000 0.003583
-0.05000000 0.25000000 0.75000000 0.003584
-0.10000000 0.15000000 0.75000000 0.003585
0.50000000 -0.75000000 -0.75000000 0.003585
-0.25000000 0.85000000 0.50000000 0.003586
0.15000000 -0.65000000 0.80000000 0.003587
-0.80000000 0.85000000 0.20000000 0.003587
0.60000000 -1.00000000 -0.40000000 0.003587
-0.15000000 0.25000000 0.75000000 0.003589
-0.60000000 -0.70000000 -0.80000000 0.003590
-0.05000000 0.40000000 0.75000000 0.003591
0.65000000 -0.60000000 0.55000000 0.003592
-0.90000000 0.05000000 -0.80000000 0.003592
0.15000000 -0.35000000 0.90000000 0.003593
-0.40000000 0.35000000 0.75000000 0.003593
-0.40000000 -0.85000000 0.60000000 0.003593
0.40000000 0.60000000 0.65000000 0.003594
0.70000000 -0.10000000 0.70000000 0.003594
0.45000000 0.70000000 0.55000000 0.003595
-0.45000000 -0.80000000 -0.80000000 0.003596
-0.85000000 -0.35000000 0.60000000 0.003597
-0.05000000 -0.25000000 0.90000000 0.003597
-0.65000000 0.15000000 0.75000000 0.003597
-1.00000000 -0.20000000 -0.70000000 0.003598
0.10000000 0.05000000 0.85000000 0.003599
0.45000000 -0.90000000 0.45000000 0.003599
0.70000000 -0.60000000 0.50000000 0.003599
-0.05000000 0.20000000 0.75000000 0.003600
-0.70000000 0.50000000 -0.80000000 0.003602
-0.10000000 0.30000000 0.75000000 0.003602
0.90000000 -0.05000000 0.50000000 0.003603
0.05000000 -0.15000000 0.90000000 0.003603
-0.45000000 0.10000000 0.80000000 0.003603
-0.55000000 0.05000000 0.80000000 0.003604
-0.10000000 0.40000000 0.75000000 0.003604
-1.00000000 0.10000000 -0.70000000 0.003605
0.25000000 -0.15000000 0.90000000 0.003605
-0.40000000 0.50000000 0.70000000 0.003605
0.95000000 -0.80000000 -0.15000000 0.003606
0.75000000 0.30000000 0.60000000 0.003606
0.00000000 0.40000000 0.75000000 0.003607
-0.45000000 -1.00000000 -0.60000000 0.003607
0.30000000 0.90000000 -0.60000000 0.003608
-0.05000000 0.30000000 0.75000000 0.003608
0.75000000 0.65000000 0.35000000 0.003610
0.15000000 -0.10000000 0.90000000 0.003611
0.20000000 -0.10000000 0.90000000 0.003611
0.35000000 1.00000000 -0.45000000 0.003611
0.30000000 0.95000000 0.35000000 0.003612
-0.25000000 -0.95000000 0.55000000 0.003612
0.45000000 -0.15000000 0.85000000 0.003612
-0.90000000 0.25000000 -0.75000000 0.003612
0.25000000 0.55000000 -0.95000000 0.003613
0.25000000 -0.20000000 0.90000000 0.003615
-0.70000000 -0.60000000 -0.80000000 0.003616
-0.65000000 -0.50000000 0.70000000 0.003616
-0.60000000 0.25000000 -1.00000000 0.003617
-0.70000000 0.15000000 -0.95000000 0.003617
0.40000000 0.50000000 0.70000000 0.003618
0.55000000 -0.65000000 0.60000000 0.003618
0.20000000 -0.30000000 0.90000000 0.003621
-0.25000000 -0.15000000 0.85000000 0.003624
0.95000000 0.35000000 -0.50000000 0.003624
0.00000000 -0.20000000 0.90000000 0.003624
-0.95000000 0.70000000 -0.35000000 0.003625
0.90000000 0.00000000 0.50000000 0.003627
0.45000000 -0.10000000 0.85000000 0.003627
-0.05000000 0.35000000 0.75000000 0.003628
0.60000000 0.15000000 0.75000000 0.003629
-0.60000000 -0.90000000 -0.60000000 0.003630
-0.80000000 -0.45000000 0.60000000 0.003630
-0.15000000 0.40000000 0.75000000 0.003630
0.70000000 0.95000000 -0.15000000 0.003630
0.30000000 -0.65000000 0.75000000 0.003633
-0.55000000 0.50000000 0.65000000 0.003633
-0.70000000 0.05000000 0.75000000 0.003633
0.80000000 -0.30000000 -0.75000000 0.003634
-0.25000000 0.40000000 0.75000000 0.003636
-0.10000000 0.35000000 0.75000000 0.003637
-0.35000000 -0.45000000 0.85000000 0.003638
-0.70000000 -0.60000000 0.60000000 0.003638
-0.75000000 0.20000000 -0.90000000 0.003639
-0.75000000 0.95000000 -0.25000000 0.003639
-0.30000000 -0.50000000 0.85000000 0.003640
0.85000000 -0.50000000 0.40000000 0.003640
-0.55000000 0.25000000 0.75000000 0.003641
0.40000000 -0.30000000 0.85000000 0.003643
-0.60000000 0.35000000 0.70000000 0.003644
-0.05000000 -0.35000000 0.90000000 0.003645
-0.20000000 0.20000000 0.75000000 0.003645
-0.35000000 0.05000000 0.80000000 0.003645
-0.90000000 -0.85000000 0.20000000 0.003646
-0.15000000 0.30000000 0.75000000 0.003646
0.60000000 0.40000000 -0.85000000 0.003647
-0.20000000 0.40000000 0.75000000 0.003648
-0.25000000 -0.65000000 -1.00000000 0.003649
0.55000000 -0.20000000 -1.00000000 0.003649
-1.00000000 -0.80000000 -0.30000000 0.003650
0.35000000 0.75000000 -0.75000000 0.003651
0.40000000 -0.65000000 0.70000000 0.003651
-0.85000000 0.85000000 0.15000000 0.003653
-0.85000000 0.25000000 0.60000000 0.003653
-0.65000000 0.30000000 0.70000000 0.003653
0.95000000 0.25000000 -0.55000000 0.003653
0.55000000 0.00000000 0.80000000 0.003654
-0.85000000 0.25000000 -0.80000000 0.003654
0.05000000 0.40000000 0.75000000 0.003654
-1.00000000 -0.60000000 -0.50000000 0.003655
-0.75000000 0.30000000 0.65000000 0.003656
-0.35000000 1.00000000 -0.50000000 0.003659
0.50000000 0.30000000 0.75000000 0.003659
0.50000000 -0.70000000 0.60000000 0.003659
-0.25000000 -0.70000000 -0.95000000 0.003659
-0.10000000 -0.10000000 0.85000000 0.003661
-0.90000000 0.10000000 0.60000000 0.003661
-0.20000000 0.15000000 0.75000000 0.003664
-0.90000000 0.50000000 -0.60000000 0.003664
0.05000000 -1.00000000 -0.70000000 0.003665
0.20000000 0.10000000 0.85000000 0.003665
-0.10000000 0.00000000 0.80000000 0.003665
0.95000000 -0.60000000 0.25000000 0.003666
0.00000000 0.35000000 0.75000000 0.003666
-0.95000000 0.70000000 0.20000000 0.003666
-0.50000000 0.45000000 -0.95000000 0.003666
0.85000000 0.10000000 0.55000000 0.003667
-0.60000000 1.00000000 0.20000000 0.003669
-0.05000000 -0.30000000 0.90000000 0.003669
0.40000000 -0.70000000 -0.85000000 0.003670
-0.40000000 -0.20000000 0.85000000 0.003671
0.50000000 -0.55000000 0.70000000 0.003672
-0.70000000 -0.25000000 0.75000000 0.003674
0.70000000 0.95000000 0.05000000 0.003674
-0.35000000 0.55000000 -0.95000000 0.003674
-1.00000000 0.45000000 0.35000000 0.003674
-0.20000000 0.25000000 0.75000000 0.003675
-0.45000000 0.95000000 -0.50000000 0.003676
-0.45000000 -0.60000000 -0.95000000 0.003677
-0.60000000 -0.25000000 0.80000000 0.003677
-0.15000000 0.35000000 0.75000000 0.003678
0.35000000 0.80000000 0.50000000 0.003679
0.00000000 0.30000000 0.75000000 0.003679
0.80000000 0.75000000 -0.35000000 0.003680
-0.80000000 -0.10000000 0.70000000 0.003680
-0.85000000 -0.90000000 0.20000000 0.003680
0.70000000 0.00000000 0.70000000 0.003681
0.65000000 0.15000000 -0.90000000 0.003681
-0.45000000 0.75000000 -0.75000000 0.003683
0.35000000 0.25000000 0.80000000 0.003683
0.25000000 -0.65000000 -0.95000000 0.003683
-0.55000000 0.40000000 -0.95000000 0.003684
-0.70000000 0.60000000 0.50000000 0.003684
-0.15000000 0.10000000 0.75000000 0.003684
0.05000000 0.00000000 0.85000000 0.003685
-1.00000000 0.35000000 -0.60000000 0.003685
-0.45000000 -0.85000000 -0.75000000 0.003685
0.75000000 0.10000000 0.65000000 0.003685
0.60000000 -0.20000000 -0.95000000 0.003686
-0.55000000 -0.95000000 0.40000000 0.003686
0.75000000 0.80000000 -0.35000000 0.003687
0.70000000 -0.05000000 0.70000000 0.003687
0.20000000 0.25000000 0.80000000 0.003687
-0.65000000 -0.95000000 -0.50000000 0.003688
-0.60000000 0.20000000 0.75000000 0.003688
-0.95000000 -0.10000000 -0.75000000 0.003689
-0.05000000 0.15000000 0.75000000 0.003689
-1.00000000 -0.75000000 0.20000000 0.003690
0.20000000 0.75000000 0.60000000 0.003691
0.90000000 -0.80000000 0.15000000 0.003691
-0.80000000 -0.05000000 0.70000000 0.003692
0.95000000 -0.80000000 0.05000000 0.003694
-0.95000000 0.10000000 0.55000000 0.003694
-0.75000000 0.40000000 0.60000000 0.003694
0.90000000 0.15000000 -0.65000000 0.003695
0.70000000 0.70000000 0.35000000 0.003695
0.15000000 0.95000000 0.40000000 0.003695
0.95000000 0.70000000 0.05000000 0.003697
-0.60000000 -0.05000000 0.80000000 0.003697
0.00000000 0.25000000 0.75000000 0.003697
-0.15000000 -1.00000000 -0.70000000 0.003699
-0.50000000 -0.45000000 0.80000000 0.003699
-0.95000000 0.60000000 -0.45000000 0.003699
-0.95000000 0.75000000 0.15000000 0.003700
-0.95000000 0.50000000 0.35000000 0.003702
0.45000000 -0.40000000 0.80000000 0.003702
-0.30000000 0.00000000 0.80000000 0.003703
-0.20000000 -0.15000000 0.85000000 0.003703
0.75000000 -0.30000000 -0.80000000 0.003704
0.30000000 -1.00000000 0.45000000 0.003705
0.95000000 -0.50000000 0.30000000 0.003705
-0.55000000 0.65000000 0.55000000 0.003706
-0.35000000 0.35000000 0.75000000 0.003707
-0.90000000 -0.45000000 -0.70000000 0.003708
0.30000000 0.10000000 0.85000000 0.003709
-0.85000000 -0.10000000 -0.85000000 0.003710
0.85000000 -0.30000000 0.50000000 0.003712
-0.35000000 -0.60000000 0.80000000 0.003712
-0.65000000 0.55000000 -0.80000000 0.003714
-0.95000000 0.00000000 -0.75000000 0.003714
-0.65000000 0.50000000 0.60000000 0.003717
-0.20000000 0.30000000 0.75000000 0.003718
0.50000000 -0.85000000 -0.65000000 0.003718
-0.10000000 0.10000000 0.75000000 0.003720
0.10000000 -0.35000000 0.90000000 0.003721
-0.90000000 -0.60000000 -0.60000000 0.003721
-0.60000000 -0.45000000 -0.95000000 0.003722
0.10000000 0.40000000 0.75000000 0.003722
-0.75000000 -0.30000000 -0.90000000 0.003725
-0.40000000 -1.00000000 0.45000000 0.003725
-0.20000000 0.35000000 0.75000000 0.003726
0.95000000 -0.25000000 0.40000000 0.003729
0.00000000 -0.35000000 0.90000000 0.003730
0.80000000 -0.80000000 -0.40000000 0.003731
0.10000000 -0.15000000 0.90000000 0.003732
-0.80000000 0.50000000 0.50000000 0.003734
0.85000000 -0.40000000 -0.65000000 0.003734
-1.00000000 0.25000000 -0.65000000 0.003734
-1.00000000 0.55000000 -0.45000000 0.003736
-0.70000000 0.30000000 -0.90000000 0.003737
0.25000000 1.00000000 -0.50000000 0.003738
0.85000000 -0.10000000 0.55000000 0.003739
0.45000000 -0.60000000 0.70000000 0.003740
0.65000000 0.80000000 0.30000000 0.003741
0.65000000 -0.30000000 0.70000000 0.003742
-0.85000000 0.00000000 -0.85000000 0.003742
-0.40000000 -0.35000000 0.85000000 0.003743
0.65000000 -0.95000000 0.25000000 0.003743
0.15000000 -0.95000000 0.55000000 0.003745
-0.65000000 -0.65000000 -0.80000000 0.003745
0.60000000 -0.65000000 -0.75000000 0.003745
-0.60000000 -0.45000000 0.75000000 0.003746
0.25000000 0.10000000 0.85000000 0.003746
0.25000000 -0.75000000 0.70000000 0.003747
-0.45000000 0.30000000 0.75000000 0.003748
-0.25000000 0.65000000 0.65000000 0.003748
-0.80000000 -0.45000000 -0.80000000 0.003749
0.00000000 -0.25000000 0.90000000 0.003749
-0.65000000 0.85000000 0.30000000 0.003749
0.55000000 -0.15000000 0.80000000 0.003750
-0.75000000 0.15000000 0.70000000 0.003750
-0.20000000 0.10000000 0.75000000 0.003753
0.65000000 0.50000000 -0.75000000 0.003753
-0.90000000 -0.10000000 -0.80000000 0.003754
0.05000000 0.35000000 0.75000000 0.003756
0.20000000 -0.15000000 0.90000000 0.003756
0.30000000 0.40000000 0.75000000 0.003756
0.40000000 0.60000000 -0.85000000 0.003757
-1.00000000 -0.45000000 -0.60000000 0.003758
-0.30000000 0.35000000 0.75000000 0.003758
-0.25000000 0.35000000 0.75000000 0.003760
0.00000000 0.20000000 0.75000000 0.003761
0.05000000 -0.35000000 0.90000000 0.003762
-0.20000000 -0.75000000 0.75000000 0.003763
-0.20000000 1.00000000 -0.55000000 0.003763
-0.40000000 -0.70000000 -0.90000000 0.003763
-1.00000000 -0.35000000 -0.65000000 0.003764
0.50000000 -0.45000000 0.75000000 0.003765
-0.90000000 0.85000000 -0.20000000 0.003765
-0.55000000 -0.75000000 0.60000000 0.003766
-0.95000000 0.65000000 -0.40000000 0.003767
0.75000000 -0.10000000 0.65000000 0.003767
-0.55000000 0.90000000 -0.50000000 0.003767
0.20000000 -0.25000000 0.90000000 0.003768
0.10000000 -0.55000000 0.85000000 0.003769
0.95000000 0.60000000 -0.30000000 0.003770
-0.95000000 -0.65000000 -0.50000000 0.003770
0.50000000 -0.80000000 -0.70000000 0.003771
-0.15000000 0.75000000 0.60000000 0.003773
0.10000000 0.55000000 -1.00000000 0.003773
0.05000000 -0.20000000 0.90000000 0.003774
0.45000000 -0.80000000 0.55000000 0.003776
0.00000000 -0.05000000 0.85000000 0.003777
-0.95000000 -0.05000000 -0.75000000 0.003777
0.35000000 0.75000000 0.55000000 0.003778
-0.70000000 0.45000000 0.60000000 0.003778
-0.90000000 0.35000000 -0.70000000 0.003779
0.90000000 0.45000000 -0.50000000 0.003779
-0.25000000 0.55000000 0.70000000 0.003781
0.05000000 0.10000000 0.80000000 0.003781
0.55000000 -0.90000000 -0.55000000 0.003781
0.15000000 -0.85000000 0.65000000 0.003782
-0.85000000 0.35000000 0.55000000 0.003784
0.65000000 -0.25000000 -0.90000000 0.003784
0.20000000 -0.50000000 0.85000000 0.003784
0.35000000 0.95000000 -0.50000000 0.003785
0.25000000 0.55000000 0.70000000 0.003786
0.50000000 0.85000000 0.35000000 0.003786
-0.25000000 0.20000000 0.75000000 0.003786
0.95000000 0.55000000 -0.35000000 0.003786
-0.55000000 -0.90000000 0.45000000 0.003787
-0.40000000 0.05000000 0.80000000 0.003788
0.10000000 0.60000000 -0.95000000 0.003788
0.25000000 0.25000000 0.80000000 0.003788
-0.25000000 0.25000000 0.75000000 0.003789
-0.35000000 0.95000000 -0.55000000 0.003790
-0.40000000 1.00000000 0.30000000 0.003790
0.00000000 -0.30000000 0.90000000 0.003791
0.70000000 -0.90000000 -0.40000000 0.003792
-0.75000000 -0.60000000 0.55000000 0.003792
0.15000000 0.40000000 0.75000000 0.003792
-0.35000000 -0.20000000 0.85000000 0.003793
-0.20000000 -0.55000000 0.85000000 0.003793
0.15000000 -0.15000000 0.90000000 0.003793
0.75000000 -1.00000000 0.10000000 0.003793
-0.60000000 0.45000000 0.65000000 0.003794
0.30000000 0.25000000 0.80000000 0.003794
0.00000000 0.05000000 0.80000000 0.003794
0.55000000 -0.05000000 0.80000000 0.003794
-0.25000000 -0.80000000 0.70000000 0.003795
-0.25000000 0.30000000 0.75000000 0.003795
0.75000000 0.20000000 -0.80000000 0.003796
-0.90000000 0.00000000 -0.80000000 0.003796
0.45000000 -0.85000000 0.50000000 0.003797
-0.40000000 -0.25000000 0.85000000 0.003798
0.75000000 0.50000000 -0.65000000 0.003800
0.15000000 -0.30000000 0.90000000 0.003801
0.55000000 -0.70000000 -0.75000000 0.003801
0.80000000 -0.70000000 -0.50000000 0.003802
-0.85000000 -0.05000000 -0.85000000 0.003802
-0.65000000 -0.25000000 -1.00000000 0.003802
-0.65000000 0.80000000 -0.55000000 0.003803
0.30000000 -0.55000000 0.80000000 0.003803
-0.20000000 0.60000000 -0.95000000 0.003804
0.10000000 1.00000000 -0.55000000 0.003804
-0.45000000 -0.70000000 0.70000000 0.003805
-0.20000000 0.55000000 -1.00000000 0.003805
0.80000000 0.10000000 0.60000000 0.003805
0.65000000 0.90000000 0.20000000 0.003807
-1.00000000 0.15000000 0.50000000 0.003808
0.10000000 0.15000000 0.80000000 0.003808
-0.75000000 0.55000000 0.50000000 0.003808
0.20000000 0.70000000 -0.85000000 0.003808
0.15000000 0.20000000 0.80000000 0.003809
-0.90000000 0.25000000 0.55000000 0.003809
0.80000000 0.20000000 -0.75000000 0.003809
-0.80000000 0.35000000 -0.80000000 0.003810
0.15000000 -0.90000000 0.60000000 0.003811
0.50000000 0.60000000 0.60000000 0.003812
0.20000000 -0.20000000 0.90000000 0.003812
-0.80000000 -0.95000000 -0.35000000 0.003813
-1.00000000 -0.55000000 0.35000000 0.003813
-0.25000000 -0.90000000 0.60000000 0.003814
0.70000000 0.90000000 0.15000000 0.003815
-0.90000000 0.80000000 0.15000000 0.003816
-0.50000000 0.05000000 0.80000000 0.003816
0.85000000 0.40000000 -0.60000000 0.003816
0.20000000 0.85000000 -0.70000000 0.003817
-0.25000000 -0.65000000 0.80000000 0.003818
-0.95000000 0.35000000 0.45000000 0.003819
-0.85000000 0.05000000 0.65000000 0.003820
-0.25000000 0.15000000 0.75000000 0.003821
-0.20000000 0.95000000 -0.60000000 0.003821
-0.20000000 -0.05000000 0.80000000 0.003822
-0.30000000 0.85000000 -0.70000000 0.003822
0.05000000 0.30000000 0.75000000 0.003822
-0.85000000 0.80000000 -0.35000000 0.003822
0.60000000 -0.50000000 0.65000000 0.003823
-0.95000000 0.25000000 0.50000000 0.003823
-0.70000000 -0.25000000 -0.95000000 0.003828
0.80000000 -0.10000000 0.60000000 0.003829
0.55000000 -0.10000000 0.80000000 0.003830
0.50000000 0.90000000 0.30000000 0.003831
-0.95000000 -0.15000000 0.55000000 0.003831
-0.40000000 -0.30000000 0.85000000 0.003832
-0.15000000 -0.15000000 0.85000000 0.003833
0.60000000 -0.40000000 0.70000000 0.003834
0.25000000 0.40000000 0.75000000 0.003834
0.80000000 0.55000000 -0.55000000 0.003835
-0.45000000 0.45000000 0.70000000 0.003836
-0.90000000 0.50000000 0.40000000 0.003837
0.50000000 0.65000000 -0.75000000 0.003837
0.20000000 0.40000000 0.75000000 0.003838
-0.60000000 -0.20000000 0.80000000 0.003839
-0.60000000 -0.10000000 0.80000000 0.003840
0.15000000 0.05000000 0.85000000 0.003840
-0.30000000 0.70000000 -0.85000000 0.003845
-1.00000000 -0.80000000 0.15000000 0.003848
-0.90000000 0.75000000 -0.35000000 0.003849
0.20000000 -0.70000000 0.75000000 0.003849
-0.70000000 0.35000000 0.65000000 0.003850
-0.90000000 -0.05000000 -0.80000000 0.003851
-0.65000000 0.25000000 -0.95000000 0.003854
0.30000000 0.90000000 0.40000000 0.003854
0.95000000 -0.15000000 -0.60000000 0.003855
-0.40000000 0.30000000 0.75000000 0.003856
0.80000000 0.45000000 0.45000000 0.003856
-0.30000000 0.30000000 0.75000000 0.003856
-0.45000000 -0.50000000 0.80000000 0.003859
0.60000000 -0.25000000 0.75000000 0.003860
-0.75000000 -1.00000000 0.20000000 0.003861
-0.95000000 0.80000000 -0.20000000 0.003862
0.10000000 0.95000000 -0.60000000 0.003862
0.80000000 -0.75000000 -0.45000000 0.003862
-0.95000000 -0.80000000 -0.35000000 0.003862
-0.45000000 0.05000000 0.80000000 0.003863
-0.05000000 0.10000000 0.75000000 0.003864
0.85000000 -0.40000000 0.45000000 0.003864
-0.25000000 -0.05000000 0.80000000 0.003865
-0.55000000 -0.35000000 0.80000000 0.003865
-0.85000000 -0.15000000 0.65000000 0.003866
-0.85000000 -0.45000000 -0.75000000 0.003867
0.80000000 0.65000000 0.30000000 0.003867
0.05000000 -0.25000000 0.90000000 0.003868
0.50000000 -0.30000000 0.80000000 0.003868
0.05000000 -0.30000000 0.90000000 0.003869
-0.05000000 0.00000000 0.80000000 0.003870
0.20000000 -0.95000000 -0.70000000 0.003870
0.75000000 0.05000000 0.65000000 0.003871
-0.35000000 0.00000000 0.80000000 0.003873
-0.35000000 0.75000000 0.55000000 0.003873
0.40000000 0.00000000 0.85000000 0.003873
0.10000000 -0.20000000 0.90000000 0.003873
-0.60000000 0.75000000 -0.65000000 0.003873
-0.15000000 -0.05000000 0.80000000 0.003873
-0.30000000 -0.20000000 0.85000000 0.003874
-0.20000000 0.80000000 0.55000000 0.003874
0.60000000 0.95000000 -0.30000000 0.003874
-0.65000000 0.40000000 0.65000000 0.003875
0.25000000 0.95000000 -0.55000000 0.003875
-0.40000000 -0.55000000 0.80000000 0.003877
-0.50000000 0.85000000 -0.60000000 0.003877
-0.15000000 0.05000000 0.75000000 0.003878
0.10000000 -0.30000000 0.90000000 0.003878
1.00000000 0.20000000 0.35000000 0.003879
-0.55000000 -0.85000000 0.50000000 0.003879
-0.05000000 -0.10000000 0.85000000 0.003882
-0.35000000 0.30000000 0.75000000 0.003883
-0.70000000 -0.40000000 -0.90000000 0.003884
-0.90000000 0.35000000 0.50000000 0.003884
-0.75000000 -0.30000000 0.70000000 0.003885
0.85000000 0.05000000 0.55000000 0.003886
1.00000000 -0.15000000 -0.55000000 0.003887
-0.90000000 -0.95000000 -0.20000000 0.003889
-0.55000000 -0.80000000 0.55000000 0.003889
0.45000000 0.90000000 -0.50000000 0.003889
0.20000000 -0.80000000 -0.85000000 0.003889
0.50000000 0.80000000 0.40000000 0.003890
0.90000000 0.70000000 0.15000000 0.003890
-0.95000000 -0.60000000 0.35000000 0.003890
0.10000000 0.35000000 0.75000000 0.003890
-0.65000000 -0.65000000 0.60000000 0.003891
-0.25000000 1.00000000 0.35000000 0.003891
-0.60000000 -0.15000000 0.80000000 0.003891
0.05000000 -0.75000000 0.75000000 0.003891
-0.55000000 0.00000000 0.80000000 0.003892
0.80000000 -0.50000000 0.45000000 0.003893
0.55000000 0.95000000 -0.35000000 0.003893
-0.90000000 -0.15000000 0.60000000 0.003894
0.15000000 -0.20000000 0.90000000 0.003894
0.50000000 0.75000000 -0.65000000 0.003894
0.00000000 0.15000000 0.75000000 0.003896
0.05000000 0.25000000 0.75000000 0.003897
0.40000000 -0.45000000 0.80000000 0.003899
0.15000000 -0.25000000 0.90000000 0.003899
0.35000000 -0.35000000 0.85000000 0.003901
0.55000000 0.80000000 -0.55000000 0.003901
0.60000000 -0.65000000 0.55000000 0.003901
0.35000000 -0.75000000 0.65000000 0.003902
0.50000000 0.10000000 0.80000000 0.003904
-0.80000000 -0.60000000 0.50000000 0.003904
-0.90000000 0.75000000 0.20000000 0.003904
0.75000000 -0.05000000 0.65000000 0.003905
-0.95000000 -0.90000000 -0.20000000 0.003907
0.45000000 0.30000000 -1.00000000 0.003907
0.35000000 0.05000000 0.85000000 0.003908
-0.65000000 0.95000000 -0.35000000 0.003908
-0.30000000 0.25000000 0.75000000 0.003908
-0.80000000 0.20000000 0.65000000 0.003909
0.70000000 0.50000000 -0.70000000 0.003909
-0.20000000 0.95000000 0.40000000 0.003910
0.35000000 -0.60000000 0.75000000 0.003911
-0.70000000 0.00000000 0.75000000 0.003911
0.50000000 0.95000000 0.25000000 0.003912
-0.35000000 0.50000000 0.70000000 0.003912
0.20000000 0.85000000 0.50000000 0.003913
-0.20000000 0.55000000 0.70000000 0.003913
0.65000000 -0.40000000 -0.85000000 0.003913
-0.65000000 -0.35000000 0.75000000 0.003914
0.85000000 -0.05000000 0.55000000 0.003914
-0.85000000 0.80000000 0.20000000 0.003914
-0.25000000 0.10000000 0.75000000 0.003915
0.00000000 -1.00000000 -0.70000000 0.003915
-1.00000000 0.65000000 -0.35000000 0.003916
-0.30000000 -0.95000000 -0.70000000 0.003917
-0.50000000 0.60000000 -0.85000000 0.003919
0.15000000 0.65000000 -0.90000000 0.003920
0.75000000 -0.65000000 -0.60000000 0.003920
-0.50000000 0.25000000 0.75000000 0.003921
-0.35000000 -0.60000000 -1.00000000 0.003921
0.25000000 0.65000000 0.65000000 0.003921
-0.60000000 -0.55000000 0.70000000 0.003922
0.85000000 0.35000000 0.45000000 0.003924
0.10000000 -0.25000000 0.90000000 0.003926
-0.20000000 0.05000000 0.75000000 0.003926
0.10000000 -0.65000000 -1.00000000 0.003927
1.00000000 0.05000000 -0.55000000 0.003928
0.95000000 0.05000000 -0.60000000 0.003930
-0.85000000 0.50000000 0.45000000 0.003931
0.35000000 -0.50000000 0.80000000 0.003932
-0.10000000 -1.00000000 -0.70000000 0.003933
0.70000000 -0.30000000 0.65000000 0.003934
0.90000000 0.65000000 0.20000000 0.003935
0.55000000 0.05000000 -1.00000000 0.003935
0.75000000 -0.85000000 -0.40000000 0.003936
-0.80000000 0.95000000 -0.15000000 0.003937
0.40000000 0.35000000 0.75000000 0.003937
0.85000000 0.25000000 0.50000000 0.003937
0.80000000 -0.30000000 0.55000000 0.003938
0.60000000 0.05000000 -0.95000000 0.003939
0.60000000 0.30000000 0.70000000 0.003940
0.20000000 0.55000000 0.70000000 0.003941
0.80000000 -0.50000000 -0.65000000 0.003941
-0.25000000 0.65000000 -0.90000000 0.003942
-1.00000000 0.60000000 -0.40000000 0.003942
0.45000000 0.45000000 0.70000000 0.003943
0.75000000 0.00000000 0.65000000 0.003943
-0.45000000 0.55000000 0.65000000 0.003943
-0.70000000 0.65000000 0.45000000 0.003945
-0.30000000 -0.80000000 -0.85000000 0.003945
-0.10000000 0.05000000 0.75000000 0.003946
0.65000000 0.30000000 -0.85000000 0.003947
-0.25000000 -0.85000000 0.65000000 0.003948
-0.60000000 -0.70000000 0.60000000 0.003949
0.40000000 0.90000000 0.35000000 0.003949
-0.60000000 0.65000000 -0.75000000 0.003949
0.10000000 0.00000000 0.85000000 0.003951
-0.25000000 -0.20000000 0.85000000 0.003951
0.75000000 -0.65000000 0.40000000 0.003952
0.40000000 0.85000000 -0.60000000 0.003952
0.75000000 -1.00000000 -0.20000000 0.003953
-0.25000000 0.90000000 -0.65000000 0.003953
-0.80000000 -1.00000000 0.15000000 0.003955
-0.30000000 0.20000000 0.75000000 0.003956
-0.35000000 -0.40000000 0.85000000 0.003956
-0.45000000 0.70000000 0.55000000 0.003957
-0.70000000 -0.20000000 0.75000000 0.003957
0.65000000 0.45000000 0.60000000 0.003959
0.40000000 -0.25000000 0.85000000 0.003963
-0.85000000 0.35000000 -0.75000000 0.003963
-0.70000000 -0.40000000 0.70000000 0.003965
0.10000000 -0.70000000 -0.95000000 0.003966
0.85000000 0.00000000 0.55000000 0.003967
0.60000000 -0.90000000 -0.50000000 0.003968
0.40000000 0.20000000 0.80000000 0.003968
-0.90000000 0.55000000 -0.55000000 0.003969
0.65000000 0.20000000 0.70000000 0.003971
0.65000000 -0.90000000 -0.45000000 0.003973
-0.30000000 0.70000000 0.60000000 0.003974
0.25000000 -0.45000000 0.85000000 0.003974
-1.00000000 0.65000000 0.20000000 0.003974
0.15000000 0.90000000 -0.65000000 0.003974
0.50000000 -0.95000000 0.35000000 0.003976
-0.70000000 -0.95000000 -0.45000000 0.003977
0.45000000 -0.50000000 0.75000000 0.003981
0.45000000 -1.00000000 0.35000000 0.003983
-0.90000000 0.05000000 0.60000000 0.003983
-0.35000000 0.60000000 0.65000000 0.003984
0.80000000 -0.65000000 0.35000000 0.003986
-0.30000000 -0.05000000 0.80000000 0.003986
-0.50000000 -0.55000000 -0.95000000 0.003986
-0.65000000 -1.00000000 -0.45000000 0.003988
0.65000000 0.85000000 0.25000000 0.003990
0.60000000 -1.00000000 0.25000000 0.003990
-0.20000000 0.65000000 0.65000000 0.003990
-0.15000000 0.55000000 0.70000000 0.003991
0.20000000 0.80000000 0.55000000 0.003991
0.30000000 0.45000000 -1.00000000 0.003992
-0.60000000 -0.85000000 -0.65000000 0.003993
0.65000000 -0.50000000 -0.80000000 0.003993
0.65000000 0.35000000 0.65000000 0.003993
-0.35000000 -0.25000000 0.85000000 0.003994
0.80000000 0.05000000 0.60000000 0.003994
-0.10000000 0.75000000 0.60000000 0.003995
0.80000000 -0.05000000 0.60000000 0.003996
0.40000000 -0.95000000 -0.60000000 0.003996
0.40000000 0.95000000 0.30000000 0.003997
0.45000000 -0.40000000 -1.00000000 0.003999
-0.55000000 -0.50000000 -0.95000000 0.004000
-0.40000000 -0.65000000 0.75000000 0.004000
-0.50000000 -0.70000000 -0.85000000 0.004001
-0.90000000 -0.60000000 0.40000000 0.004002
0.05000000 -0.55000000 0.85000000 0.004003
0.75000000 -0.30000000 0.60000000 0.004004
0.55000000 -0.55000000 -0.85000000 0.004005
-0.95000000 0.05000000 0.55000000 0.004005
-0.50000000 0.60000000 0.60000000 0.004005
0.55000000 -0.15000000 -1.00000000 0.004006
-0.60000000 -0.75000000 -0.75000000 0.004007
-0.05000000 -1.00000000 -0.70000000 0.004007
0.15000000 0.75000000 0.60000000 0.004008
0.50000000 0.70000000 -0.70000000 0.004009
-0.85000000 -0.60000000 0.45000000 0.004009
-0.35000000 0.25000000 0.75000000 0.004011
-1.00000000 -0.15000000 -0.70000000 0.004013
-0.10000000 -0.15000000 0.85000000 0.004013
0.10000000 -0.65000000 0.80000000 0.004014
-0.35000000 0.95000000 0.35000000 0.004014
0.30000000 -0.40000000 0.85000000 0.004014
0.65000000 -0.65000000 -0.70000000 0.004015
-0.55000000 0.70000000 0.50000000 0.004016
0.05000000 0.20000000 0.75000000 0.004016
0.35000000 0.50000000 0.70000000 0.004017
0.60000000 0.10000000 0.75000000 0.004018
-0.70000000 0.40000000 -0.85000000 0.004018
-0.70000000 0.80000000 -0.50000000 0.004020
-0.10000000 -0.05000000 0.80000000 0.004020
0.70000000 -0.65000000 0.45000000 0.004020
-0.50000000 0.40000000 0.70000000 0.004020
0.50000000 -0.90000000 0.40000000 0.004021
-1.00000000 0.05000000 -0.70000000 0.004022
0.10000000 -0.80000000 0.70000000 0.004023
0.70000000 0.25000000 0.65000000 0.004024
0.60000000 -0.15000000 -0.95000000 0.004025
0.10000000 0.30000000 0.75000000 0.004025
-0.60000000 -0.35000000 -1.00000000 0.004025
0.20000000 0.05000000 0.85000000 0.004027
0.65000000 -0.65000000 0.50000000 0.004027
0.40000000 -0.55000000 0.75000000 0.004028
0.50000000 -0.75000000 0.55000000 0.004028
-0.30000000 0.15000000 0.75000000 0.004028
0.90000000 -0.25000000 0.45000000 0.004029
-1.00000000 -0.20000000 0.50000000 0.004029
1.00000000 0.65000000 -0.10000000 0.004030
0.80000000 -0.80000000 0.25000000 0.004030
0.85000000 -0.25000000 -0.70000000 0.004030
-0.15000000 -0.55000000 0.85000000 0.004031
0.55000000 0.35000000 -0.90000000 0.004033
0.45000000 0.55000000 0.65000000 0.004034
-0.40000000 0.00000000 0.80000000 0.004035
-0.85000000 0.00000000 0.65000000 0.004036
-0.10000000 0.55000000 0.70000000 0.004036
0.15000000 0.55000000 0.70000000 0.004036
-0.70000000 0.95000000 -0.30000000 0.004037
-0.65000000 0.10000000 0.75000000 0.004040
-0.35000000 -0.65000000 -0.95000000 0.004041
0.15000000 0.35000000 0.75000000 0.004041
-0.75000000 -0.95000000 -0.40000000 0.004043
0.20000000 0.20000000 0.80000000 0.004043
0.05000000 -0.05000000 0.85000000 0.004043
-0.25000000 -0.50000000 0.85000000 0.004045
0.95000000 0.30000000 0.35000000 0.004048
-0.55000000 -0.50000000 0.75000000 0.004049
-0.30000000 -0.90000000 -0.75000000 0.004050
-0.20000000 -0.20000000 0.85000000 0.004051
-0.35000000 0.90000000 0.40000000 0.004051
-0.95000000 -0.70000000 -0.45000000 0.004052
0.85000000 0.30000000 -0.65000000 0.004053
0.90000000 0.20000000 0.45000000 0.004053
-0.20000000 0.90000000 0.45000000 0.004053
0.90000000 -0.60000000 -0.45000000 0.004054
-0.15000000 -0.75000000 0.75000000 0.004054
-0.45000000 0.25000000 0.75000000 0.004054
-0.60000000 0.70000000 -0.70000000 0.004055
-0.70000000 -0.50000000 0.65000000 0.004055
0.80000000 0.00000000 0.60000000 0.004056
0.55000000 -0.70000000 0.55000000 0.004056
-0.75000000 -0.60000000 -0.75000000 0.004056
-0.50000000 -0.65000000 0.70000000 0.004058
-0.85000000 -0.10000000 0.65000000 0.004058
-0.65000000 -0.90000000 -0.55000000 0.004059
-0.75000000 0.50000000 -0.75000000 0.004060
-0.70000000 0.70000000 0.40000000 0.004060
0.45000000 -0.65000000 -0.85000000 0.004062
0.80000000 0.70000000 -0.40000000 0.004066
0.55000000 -0.35000000 0.75000000 0.004067
-0.05000000 0.55000000 0.70000000 0.004067
0.20000000 -0.90000000 -0.75000000 0.004067
-0.35000000 -0.95000000 0.50000000 0.004068
0.35000000 -0.95000000 0.45000000 0.004070
0.90000000 -0.20000000 -0.65000000 0.004070
0.15000000 -0.75000000 -0.90000000 0.004071
1.00000000 -0.50000000 -0.40000000 0.004071
0.70000000 -0.90000000 0.25000000 0.004071
-0.40000000 0.25000000 0.75000000 0.004071
0.45000000 0.15000000 0.80000000 0.004073
0.70000000 -0.65000000 -0.65000000 0.004074
-0.70000000 -0.50000000 -0.85000000 0.004075
-0.30000000 -0.45000000 0.85000000 0.004075
-0.85000000 0.50000000 -0.65000000 0.004077
-0.75000000 -1.00000000 -0.35000000 0.004077
0.80000000 0.60000000 -0.50000000 0.004079
0.65000000 -0.50000000 0.60000000 0.004080
0.70000000 0.80000000 -0.40000000 0.004080
-0.55000000 0.20000000 0.75000000 0.004080
0.55000000 -0.45000000 -0.90000000 0.004083
-0.55000000 -0.60000000 0.70000000 0.004083
-0.25000000 0.05000000 0.75000000 0.004084
0.50000000 0.75000000 0.45000000 0.004085
-1.00000000 -0.65000000 -0.45000000 0.004085
0.30000000 0.05000000 0.85000000 0.004086
0.10000000 0.55000000 0.70000000 0.004086
0.60000000 0.55000000 -0.75000000 0.004087
-0.85000000 -0.60000000 -0.65000000 0.004087
-0.20000000 0.85000000 0.50000000 0.004087
0.55000000 0.55000000 0.60000000 0.004088
-0.65000000 0.10000000 -1.00000000 0.004088
-0.85000000 -0.90000000 -0.35000000 0.004088
-0.95000000 -0.10000000 0.55000000 0.004091
0.00000000 0.55000000 0.70000000 0.004091
-0.80000000 0.80000000 -0.40000000 0.004092
-0.70000000 -0.05000000 0.75000000 0.004094
0.20000000 0.75000000 -0.80000000 0.004095
-0.25000000 -1.00000000 0.50000000 0.004097
-1.00000000 0.70000000 0.15000000 0.004098
0.20000000 0.80000000 -0.75000000 0.004099
0.40000000 -0.05000000 0.85000000 0.004100
0.90000000 -0.80000000 -0.25000000 0.004101
0.05000000 0.55000000 0.70000000 0.004101
-0.60000000 0.60000000 0.55000000 0.004102
-0.50000000 0.00000000 0.80000000 0.004103
0.15000000 0.90000000 0.45000000 0.004103
-0.90000000 -0.85000000 -0.35000000 0.004105
0.30000000 -0.55000000 -1.00000000 0.004105
0.05000000 0.05000000 0.80000000 0.004106
-0.95000000 -0.75000000 -0.40000000 0.004106
0.75000000 -0.50000000 0.50000000 0.004107
0.80000000 -0.40000000 -0.70000000 0.004108
0.70000000 0.75000000 0.30000000 0.004108
0.50000000 0.20000000 -1.00000000 0.004108
0.55000000 0.45000000 -0.85000000 0.004109
-0.35000000 -0.35000000 0.85000000 0.004110
-0.35000000 0.80000000 0.50000000 0.004111
-0.30000000 -0.85000000 -0.80000000 0.004112
-0.35000000 -0.30000000 0.85000000 0.004113
0.00000000 0.10000000 0.75000000 0.004114
0.10000000 0.10000000 0.80000000 0.004115
-0.85000000 -0.05000000 0.65000000 0.004116
0.95000000 -0.10000000 -0.60000000 0.004117
0.55000000 0.60000000 -0.75000000 0.004117
0.25000000 0.05000000 0.85000000 0.004119
-0.65000000 0.90000000 0.25000000 0.004121
0.65000000 1.00000000 -0.10000000 0.004122
-1.00000000 -0.35000000 0.45000000 0.004122
-0.20000000 -0.95000000 0.55000000 0.004122
-0.70000000 -0.15000000 0.75000000 0.004123
0.15000000 0.15000000 0.80000000 0.004123
0.20000000 -0.60000000 0.80000000 0.004124
-0.45000000 -0.95000000 0.45000000 0.004125
0.55000000 0.20000000 0.75000000 0.004125
0.60000000 0.80000000 -0.50000000 0.004126
0.85000000 0.65000000 0.25000000 0.004126
-0.35000000 0.20000000 0.75000000 0.004127
-0.10000000 0.20000000 0.70000000 0.004128
-0.30000000 0.80000000 -0.75000000 0.004128
-0.75000000 0.80000000 -0.45000000 0.004129
-0.05000000 0.05000000 0.75000000 0.004129
-0.90000000 -0.10000000 0.60000000 0.004130
-0.95000000 -0.30000000 0.50000000 0.004131
-0.75000000 1.00000000 0.00000000 0.004132
-0.30000000 0.75000000 -0.80000000 0.004133
-0.45000000 0.00000000 0.80000000 0.004133
0.00000000 -0.75000000 0.75000000 0.004133
0.20000000 -0.85000000 -0.80000000 0.004134
0.65000000 -0.40000000 0.65000000 0.004134
1.00000000 -0.75000000 -0.10000000 0.004135
0.00000000 -0.10000000 0.85000000 0.004136
-0.30000000 -0.25000000 0.85000000 0.004136
-0.30000000 0.50000000 0.70000000 0.004136
-0.40000000 0.45000000 -1.00000000 0.004137
0.95000000 0.15000000 0.40000000 0.004139
0.30000000 -0.75000000 -0.85000000 0.004139
-0.40000000 0.65000000 0.60000000 0.004141
-0.55000000 -0.05000000 0.80000000 0.004143
0.35000000 0.55000000 -0.90000000 0.004144
0.90000000 0.50000000 0.30000000 0.004145
-0.90000000 -0.65000000 -0.55000000 0.004146
0.00000000 0.00000000 0.80000000 0.004147
-0.90000000 0.70000000 -0.40000000 0.004147
-0.30000000 0.10000000 0.75000000 0.004148
0.55000000 -0.85000000 -0.60000000 0.004148
-0.60000000 -0.80000000 -0.70000000 0.004148
0.55000000 -0.75000000 -0.70000000 0.004148
-0.35000000 -0.75000000 0.70000000 0.004148
0.00000000 -0.55000000 0.85000000 0.004149
0.35000000 -0.65000000 -0.90000000 0.004150
-0.70000000 -0.65000000 0.55000000 0.004152
-0.90000000 0.60000000 -0.50000000 0.004152
-0.35000000 -0.05000000 0.80000000 0.004153
-0.10000000 0.15000000 0.70000000 0.004153
0.60000000 0.50000000 0.60000000 0.004153
-0.40000000 0.45000000 0.70000000 0.004154
0.50000000 0.40000000 0.70000000 0.004154
0.75000000 0.70000000 0.30000000 0.004155
-0.60000000 0.15000000 0.75000000 0.004155
0.30000000 0.65000000 -0.85000000 0.004156
-0.50000000 1.00000000 0.25000000 0.004157
0.95000000 0.00000000 -0.60000000 0.004158
0.80000000 -0.40000000 0.50000000 0.004158
0.50000000 0.65000000 0.55000000 0.004159
-0.55000000 0.75000000 0.45000000 0.004161
0.85000000 0.50000000 0.35000000 0.004161
-0.05000000 0.75000000 0.60000000 0.004162
-0.55000000 0.80000000 0.40000000 0.004162
-0.70000000 0.75000000 0.35000000 0.004162
0.05000000 0.60000000 -0.95000000 0.004163
1.00000000 0.65000000 0.00000000 0.004163
0.15000000 1.00000000 0.35000000 0.004164
-0.55000000 0.85000000 0.35000000 0.004165
-1.00000000 -0.75000000 -0.35000000 0.004165
-0.15000000 0.00000000 0.75000000 0.004166
-0.35000000 0.85000000 0.45000000 0.004166
-0.15000000 0.20000000 0.70000000 0.004166
-0.15000000 0.15000000 0.70000000 0.004167
-0.65000000 -0.35000000 -0.95000000 0.004168
-0.10000000 -0.55000000 0.85000000 0.004168
-0.70000000 -0.10000000 0.75000000 0.004168
1.00000000 -0.10000000 -0.55000000 0.004168
0.10000000 0.25000000 0.75000000 0.004169
0.45000000 0.55000000 -0.85000000 0.004170
-0.70000000 0.20000000 0.70000000 0.004170
0.15000000 -0.50000000 0.85000000 0.004171
-0.15000000 0.65000000 0.65000000 0.004172
0.35000000 0.35000000 0.75000000 0.004173
0.40000000 -0.20000000 0.85000000 0.004173
0.40000000 0.85000000 0.40000000 0.004173
0.65000000 1.00000000 0.00000000 0.004174
0.80000000 0.65000000 -0.45000000 0.004175
0.70000000 0.15000000 -0.85000000 0.004175
-0.55000000 0.35000000 0.70000000 0.004175
-0.50000000 -0.95000000 -0.60000000 0.004176
0.05000000 0.55000000 -1.00000000 0.004176
-0.15000000 0.60000000 -0.95000000 0.004176
0.20000000 0.35000000 0.75000000 0.004177
0.55000000 -0.55000000 0.65000000 0.004177
-0.90000000 0.00000000 0.60000000 0.004177
0.90000000 -0.35000000 -0.60000000 0.004178
0.60000000 0.00000000 -0.95000000 0.004178
-0.90000000 -0.30000000 0.55000000 0.004178
0.55000000 0.35000000 0.70000000 0.004179
-0.75000000 0.60000000 0.45000000 0.004179
0.25000000 -0.80000000 0.65000000 0.004179
0.50000000 -0.60000000 -0.85000000 0.004180
0.75000000 -0.50000000 -0.70000000 0.004180
0.65000000 0.10000000 -0.90000000 0.004181
-0.70000000 0.10000000 -0.95000000 0.004181
-0.20000000 -0.65000000 -1.00000000 0.004181
0.70000000 -0.50000000 0.55000000 0.004181
0.55000000 0.00000000 -1.00000000 0.004183
-0.95000000 0.00000000 0.55000000 0.004183
-0.20000000 -0.70000000 -0.95000000 0.004183
-0.80000000 -0.30000000 -0.85000000 0.004185
-0.15000000 -0.20000000 0.85000000 0.004188
-0.70000000 1.00000000 0.10000000 0.004188
1.00000000 0.00000000 -0.55000000 0.004190
-0.70000000 -1.00000000 -0.40000000 0.004190
0.35000000 0.60000000 0.65000000 0.004191
-0.20000000 0.00000000 0.75000000 0.004193
0.35000000 0.20000000 0.80000000 0.004194
0.75000000 0.45000000 0.50000000 0.004194
-0.80000000 0.55000000 0.45000000 0.004195
-0.55000000 0.30000000 -1.00000000 0.004195
-0.55000000 -0.30000000 0.80000000 0.004195
0.90000000 -0.45000000 -0.55000000 0.004197
-0.10000000 0.25000000 0.70000000 0.004197
0.10000000 0.95000000 0.40000000 0.004198
0.50000000 0.30000000 -0.95000000 0.004198
-0.55000000 -1.00000000 0.35000000 0.004199
0.15000000 0.00000000 0.85000000 0.004199
0.70000000 -0.50000000 -0.75000000 0.004200
0.05000000 0.15000000 0.75000000 0.004201
0.65000000 0.80000000 -0.45000000 0.004201
-0.05000000 0.20000000 0.70000000 0.004202
0.20000000 0.65000000 0.65000000 0.004202
-0.15000000 0.55000000 -1.00000000 0.004203
0.95000000 0.50000000 0.25000000 0.004205
0.25000000 0.20000000 0.80000000 0.004205
-0.05000000 -0.55000000 0.85000000 0.004206
0.10000000 0.75000000 0.60000000 0.004206
-0.20000000 -0.10000000 0.80000000 0.004207
0.50000000 -0.85000000 0.45000000 0.004208
-0.95000000 -0.30000000 -0.70000000 0.004209
0.70000000 -0.40000000 -0.80000000 0.004211
0.45000000 0.30000000 0.75000000 0.004212
-0.95000000 -0.05000000 0.55000000 0.004212
-0.45000000 -0.90000000 0.50000000 0.004213
-0.45000000 -0.60000000 0.75000000 0.004214
-0.50000000 -0.55000000 0.75000000 0.004215
0.60000000 0.25000000 -0.90000000 0.004215
0.50000000 -0.30000000 -1.00000000 0.004216
-0.10000000 -0.75000000 0.75000000 0.004217
0.75000000 -0.85000000 0.25000000 0.004217
-0.85000000 0.90000000 0.05000000 0.004219
0.90000000 0.10000000 -0.65000000 0.004219
-0.20000000 -0.65000000 0.80000000 0.004219
0.30000000 0.70000000 0.60000000 0.004219
0.70000000 -0.25000000 -0.85000000 0.004220
0.85000000 0.15000000 -0.70000000 0.004220
-0.90000000 0.65000000 -0.45000000 0.004220
0.65000000 0.40000000 -0.80000000 0.004221
0.95000000 -0.05000000 -0.60000000 0.004222
0.50000000 0.70000000 0.50000000 0.004222
0.25000000 -0.95000000 0.50000000 0.004222
0.55000000 -0.10000000 -1.00000000 0.004223
0.40000000 -0.75000000 -0.80000000 0.004223
-0.80000000 -0.60000000 -0.70000000 0.004225
-0.80000000 0.20000000 -0.85000000 0.004225
-0.40000000 0.85000000 -0.65000000 0.004226
0.60000000 -0.10000000 -0.95000000 0.004227
0.50000000 -0.80000000 0.50000000 0.004227
-0.25000000 -0.75000000 -0.90000000 0.004227
-0.90000000 -0.05000000 0.60000000 0.004227
0.60000000 -0.70000000 -0.70000000 0.004229
-0.30000000 -0.70000000 0.75000000 0.004230
-0.80000000 0.50000000 -0.70000000 0.004231
-0.50000000 -0.40000000 0.80000000 0.004232
0.75000000 -0.70000000 -0.55000000 0.004233
-0.25000000 -0.10000000 0.80000000 0.004234
-0.05000000 0.25000000 0.70000000 0.004235
0.35000000 0.00000000 0.85000000 0.004236
1.00000000 -0.75000000 0.00000000 0.004236
0.40000000 -0.10000000 0.85000000 0.004237
0.60000000 -0.20000000 0.75000000 0.004237
-0.05000000 -0.15000000 0.85000000 0.004238
-0.15000000 1.00000000 -0.55000000 0.004238
-0.60000000 -0.75000000 0.55000000 0.004240
-0.50000000 0.50000000 0.65000000 0.004242
-0.15000000 0.80000000 0.55000000 0.004243
0.55000000 0.20000000 -0.95000000 0.004243
-0.75000000 0.10000000 0.70000000 0.004244
-0.05000000 -0.75000000 0.75000000 0.004244
0.40000000 0.35000000 -1.00000000 0.004245
-0.45000000 0.75000000 0.50000000 0.004246
0.90000000 0.70000000 -0.25000000 0.004246
-0.80000000 -0.30000000 0.65000000 0.004247
-0.95000000 0.20000000 -0.70000000 0.004247
0.40000000 -0.70000000 0.65000000 0.004251
-0.05000000 -0.05000000 0.80000000 0.004251
-0.60000000 -0.95000000 0.35000000 0.004252
0.75000000 0.55000000 -0.60000000 0.004253
-0.20000000 -0.80000000 0.70000000 0.004253
0.10000000 -0.95000000 0.55000000 0.004253
-0.15000000 0.25000000 0.70000000 0.004254
0.70000000 0.45000000 0.55000000 0.004255
0.85000000 -0.55000000 -0.55000000 0.004256
0.75000000 -0.80000000 -0.45000000 0.004257
-0.25000000 -0.25000000 0.85000000 0.004257
-0.40000000 0.65000000 -0.85000000 0.004257
-0.15000000 0.95000000 -0.60000000 0.004257
-0.35000000 0.15000000 0.75000000 0.004258
0.15000000 0.30000000 0.75000000 0.004259
0.65000000 -0.25000000 0.70000000 0.004263
0.25000000 0.35000000 0.75000000 0.004263
0.00000000 0.75000000 0.60000000 0.004264
0.30000000 0.20000000 0.80000000 0.004264
0.40000000 -0.15000000 0.85000000 0.004264
-0.65000000 0.95000000 0.20000000 0.004264
-0.35000000 -0.90000000 0.55000000 0.004264
-0.10000000 0.00000000 0.75000000 0.004265
0.75000000 0.75000000 -0.40000000 0.004265
