//X Y Z Consensus 
0.05000000 -1.00000000 0.25000000 0.010312
-1.00000000 -0.45000000 -0.25000000 0.010315
-0.60000000 -0.50000000 -0.65000000 0.010316
0.55000000 0.05000000 -0.75000000 0.010316
0.30000000 -0.80000000 -0.45000000 0.010317
-0.35000000 -0.75000000 0.35000000 0.010317
0.65000000 0.00000000 -0.55000000 0.010318
-0.40000000 -0.15000000 -0.50000000 0.010318
-0.05000000 0.40000000 0.35000000 0.010318
-0.25000000 0.80000000 -0.45000000 0.010318
0.40000000 0.40000000 -0.55000000 0.010319
0.00000000 0.65000000 -0.60000000 0.010321
-0.30000000 0.90000000 0.20000000 0.010322
-0.70000000 -0.30000000 0.50000000 0.010324
-0.95000000 -0.30000000 0.25000000 0.010324
0.35000000 -0.50000000 -0.45000000 0.010326
-0.50000000 -0.60000000 0.40000000 0.010326
-0.10000000 0.70000000 0.40000000 0.010327
-0.05000000 -0.55000000 0.30000000 0.010327
0.85000000 0.40000000 -0.25000000 0.010327
-0.70000000 -0.55000000 -0.50000000 0.010328
-0.50000000 -0.15000000 -0.50000000 0.010328
0.15000000 0.55000000 0.35000000 0.010329
0.85000000 -0.45000000 0.20000000 0.010329
-0.35000000 -1.00000000 -0.30000000 0.010330
0.85000000 -0.35000000 0.25000000 0.010330
0.25000000 -0.45000000 -0.45000000 0.010330
0.95000000 0.00000000 0.20000000 0.010330
0.40000000 0.20000000 -0.55000000 0.010331
0.80000000 0.05000000 -0.45000000 0.010331
0.25000000 0.40000000 -0.70000000 0.010331
-0.80000000 -0.30000000 -0.55000000 0.010333
-0.55000000 -0.60000000 -0.65000000 0.010333
-0.75000000 -0.55000000 -0.45000000 0.010335
0.25000000 -0.35000000 -0.45000000 0.010336
0.00000000 -0.90000000 0.40000000 0.010337
0.05000000 -0.30000000 0.25000000 0.010337
-0.15000000 -0.50000000 -0.45000000 0.010338
0.25000000 -0.20000000 -0.50000000 0.010338
0.05000000 0.60000000 -0.70000000 0.010342
-0.45000000 -0.65000000 0.50000000 0.010342
0.50000000 -0.05000000 0.40000000 0.010343
-0.40000000 0.80000000 -0.40000000 0.010343
-0.75000000 -0.30000000 0.45000000 0.010343
0.15000000 -0.25000000 -0.50000000 0.010347
-0.85000000 -0.20000000 -0.55000000 0.010347
0.70000000 -0.45000000 0.35000000 0.010349
0.30000000 0.55000000 -0.60000000 0.010349
-0.70000000 -0.40000000 0.35000000 0.010349
0.45000000 0.15000000 0.40000000 0.010350
-0.45000000 -0.35000000 -0.50000000 0.010351
0.30000000 0.05000000 0.40000000 0.010351
0.55000000 -0.35000000 0.40000000 0.010351
0.25000000 0.20000000 -0.75000000 0.010351
0.90000000 0.30000000 -0.25000000 0.010352
0.60000000 -0.25000000 0.50000000 0.010352
0.40000000 -0.60000000 -0.45000000 0.010352
0.15000000 -0.70000000 0.30000000 0.010354
0.70000000 -0.30000000 -0.60000000 0.010354
-0.65000000 -0.30000000 -0.60000000 0.010354
-0.95000000 -0.45000000 -0.30000000 0.010355
0.10000000 0.65000000 -0.60000000 0.010355
-0.05000000 0.35000000 0.35000000 0.010356
0.65000000 -0.40000000 0.40000000 0.010356
0.20000000 -0.55000000 -0.45000000 0.010357
-0.45000000 -0.65000000 0.45000000 0.010358
0.40000000 -0.05000000 0.45000000 0.010359
-0.20000000 0.30000000 -0.55000000 0.010359
-0.40000000 0.10000000 -0.45000000 0.010359
-0.85000000 -0.55000000 0.25000000 0.010359
0.75000000 0.05000000 -0.50000000 0.010360
-0.20000000 0.10000000 0.30000000 0.010363
-0.20000000 0.40000000 -0.60000000 0.010363
0.30000000 0.40000000 0.40000000 0.010364
-0.45000000 -0.10000000 0.30000000 0.010364
0.20000000 0.10000000 0.45000000 0.010365
0.75000000 0.15000000 -0.50000000 0.010366
0.55000000 0.30000000 -0.50000000 0.010367
-0.55000000 -0.25000000 0.40000000 0.010367
-0.45000000 0.75000000 -0.45000000 0.010368
-0.35000000 -0.45000000 -0.50000000 0.010369
-0.40000000 -0.10000000 -0.45000000 0.010369
-0.70000000 0.00000000 -0.50000000 0.010369
0.30000000 0.10000000 -0.70000000 0.010370
0.75000000 -0.45000000 0.30000000 0.010371
-0.40000000 -0.20000000 0.30000000 0.010371
-0.80000000 0.25000000 -0.45000000 0.010372
0.35000000 0.50000000 0.35000000 0.010373
0.50000000 -0.10000000 0.45000000 0.010373
-0.20000000 0.35000000 0.40000000 0.010374
-0.55000000 -0.90000000 -0.30000000 0.010374
-0.25000000 0.00000000 0.25000000 0.010374
-0.15000000 0.45000000 -0.65000000 0.010374
0.25000000 0.45000000 0.40000000 0.010375
-0.05000000 0.25000000 0.40000000 0.010380
0.25000000 0.00000000 0.45000000 0.010383
0.50000000 0.80000000 -0.25000000 0.010383
0.35000000 0.65000000 -0.50000000 0.010383
-0.40000000 -0.30000000 0.35000000 0.010383
0.20000000 -0.45000000 -0.45000000 0.010383
-0.30000000 0.45000000 0.40000000 0.010384
0.60000000 0.40000000 -0.45000000 0.010385
0.45000000 0.25000000 -0.75000000 0.010385
-0.10000000 0.40000000 0.35000000 0.010386
-0.05000000 0.35000000 -0.65000000 0.010386
0.65000000 0.15000000 -0.55000000 0.010387
-0.15000000 -0.95000000 -0.40000000 0.010388
0.05000000 0.55000000 -0.60000000 0.010390
-0.20000000 -0.85000000 0.40000000 0.010391
0.25000000 0.40000000 0.40000000 0.010392
0.95000000 -0.45000000 -0.15000000 0.010394
0.75000000 -0.55000000 0.25000000 0.010394
0.20000000 -0.55000000 0.25000000 0.010396
0.40000000 0.25000000 -0.70000000 0.010396
0.10000000 0.70000000 -0.55000000 0.010397
-0.30000000 -0.80000000 0.35000000 0.010399
-0.40000000 -0.75000000 -0.45000000 0.010399
0.60000000 0.00000000 -0.65000000 0.010399
0.65000000 0.15000000 0.40000000 0.010399
-0.50000000 0.40000000 -0.45000000 0.010399
-0.45000000 -1.00000000 -0.25000000 0.010400
0.35000000 0.25000000 0.35000000 0.010400
-0.90000000 0.25000000 0.30000000 0.010400
0.60000000 0.00000000 -0.55000000 0.010402
-0.35000000 0.35000000 0.35000000 0.010403
0.70000000 -0.30000000 0.35000000 0.010403
-0.40000000 -0.05000000 -0.45000000 0.010404
-0.20000000 1.00000000 0.10000000 0.010405
-0.20000000 0.20000000 0.35000000 0.010406
-0.15000000 -0.55000000 0.35000000 0.010408
0.65000000 -0.35000000 0.40000000 0.010410
-0.40000000 -0.25000000 -0.45000000 0.010411
-0.65000000 -0.10000000 -0.50000000 0.010411
-0.55000000 0.35000000 -0.45000000 0.010412
0.05000000 -0.10000000 -0.45000000 0.010413
0.70000000 0.20000000 0.35000000 0.010414
0.80000000 -0.25000000 -0.45000000 0.010414
0.50000000 0.00000000 -0.75000000 0.010417
0.15000000 0.10000000 0.45000000 0.010418
0.60000000 0.05000000 0.40000000 0.010418
-0.70000000 -0.40000000 -0.60000000 0.010418
0.60000000 -0.25000000 0.35000000 0.010419
0.50000000 0.45000000 -0.45000000 0.010420
0.30000000 -0.15000000 -0.55000000 0.010420
0.40000000 -0.90000000 0.20000000 0.010420
-0.55000000 0.45000000 -0.45000000 0.010421
-0.05000000 -0.40000000 0.25000000 0.010421
-0.20000000 0.85000000 0.30000000 0.010422
-0.60000000 0.55000000 -0.45000000 0.010422
-0.35000000 0.10000000 -0.45000000 0.010424
0.20000000 -0.15000000 0.35000000 0.010424
0.40000000 0.50000000 -0.50000000 0.010428
0.10000000 0.20000000 0.40000000 0.010429
0.30000000 0.50000000 0.35000000 0.010429
-0.60000000 -0.15000000 -0.50000000 0.010431
0.70000000 0.30000000 -0.45000000 0.010431
-0.25000000 -0.85000000 0.35000000 0.010436
-0.65000000 -0.40000000 0.50000000 0.010436
0.15000000 -0.55000000 -0.45000000 0.010436
0.55000000 -0.15000000 0.40000000 0.010436
-0.65000000 -0.05000000 0.35000000 0.010437
0.60000000 0.10000000 0.40000000 0.010438
-0.10000000 0.30000000 0.40000000 0.010438
-0.10000000 0.10000000 0.35000000 0.010439
-0.80000000 -0.25000000 0.35000000 0.010440
0.65000000 -0.35000000 0.35000000 0.010443
0.20000000 0.75000000 0.35000000 0.010444
-0.45000000 0.25000000 0.30000000 0.010444
0.30000000 -0.45000000 -0.45000000 0.010444
0.80000000 -0.10000000 0.35000000 0.010445
-0.60000000 -0.70000000 -0.45000000 0.010445
0.65000000 -0.25000000 0.45000000 0.010446
-0.45000000 -0.20000000 -0.45000000 0.010447
-0.55000000 -0.50000000 0.50000000 0.010447
0.55000000 -0.20000000 -0.65000000 0.010448
-0.85000000 -0.50000000 -0.40000000 0.010448
0.40000000 0.15000000 -0.55000000 0.010448
-0.35000000 0.15000000 -0.45000000 0.010449
-0.60000000 -0.35000000 -0.60000000 0.010450
-0.25000000 -0.35000000 -0.45000000 0.010451
0.10000000 -0.90000000 0.35000000 0.010451
0.60000000 -0.35000000 0.40000000 0.010452
-0.10000000 -0.10000000 0.25000000 0.010453
-0.40000000 0.70000000 0.35000000 0.010454
0.20000000 -0.75000000 0.30000000 0.010454
-0.75000000 0.45000000 0.30000000 0.010456
-0.40000000 0.45000000 0.35000000 0.010457
0.65000000 0.20000000 0.35000000 0.010457
-0.35000000 -0.75000000 -0.50000000 0.010459
-0.05000000 0.20000000 0.40000000 0.010459
0.00000000 -0.25000000 0.25000000 0.010460
-0.05000000 -0.85000000 0.45000000 0.010461
0.05000000 -0.85000000 0.40000000 0.010461
0.15000000 0.55000000 -0.50000000 0.010463
-0.45000000 -0.85000000 -0.40000000 0.010463
0.10000000 -0.15000000 0.30000000 0.010464
-0.15000000 -0.75000000 -0.55000000 0.010465
0.15000000 -0.10000000 0.35000000 0.010465
0.40000000 0.35000000 0.35000000 0.010466
0.70000000 -0.15000000 -0.60000000 0.010467
-0.10000000 0.30000000 -0.60000000 0.010467
-0.40000000 0.20000000 0.30000000 0.010468
-0.65000000 -0.40000000 0.35000000 0.010470
-0.15000000 0.35000000 -0.60000000 0.010471
0.55000000 -0.50000000 -0.50000000 0.010471
-0.10000000 -0.50000000 0.30000000 0.010474
-0.85000000 0.55000000 0.15000000 0.010474
0.30000000 0.35000000 -0.65000000 0.010475
-0.85000000 -0.40000000 0.30000000 0.010475
-0.65000000 0.65000000 -0.40000000 0.010477
0.50000000 0.60000000 -0.45000000 0.010477
0.35000000 0.85000000 0.20000000 0.010478
-0.65000000 -0.05000000 -0.50000000 0.010479
-0.55000000 0.30000000 0.30000000 0.010480
-0.10000000 -0.60000000 0.35000000 0.010480
0.60000000 -0.30000000 0.35000000 0.010482
-0.90000000 -0.20000000 0.30000000 0.010483
0.10000000 -0.75000000 0.35000000 0.010483
-0.50000000 -0.65000000 -0.55000000 0.010485
-0.20000000 -0.15000000 0.25000000 0.010487
-0.50000000 -0.60000000 0.45000000 0.010488
-0.85000000 -0.40000000 -0.45000000 0.010488
0.35000000 0.00000000 0.40000000 0.010490
0.05000000 0.65000000 -0.60000000 0.010490
-0.40000000 0.20000000 -0.45000000 0.010492
-0.05000000 -1.00000000 0.25000000 0.010492
-0.45000000 -0.70000000 -0.55000000 0.010493
0.20000000 0.55000000 0.35000000 0.010494
0.05000000 0.45000000 0.35000000 0.010494
0.05000000 -0.25000000 -0.45000000 0.010496
0.05000000 0.10000000 -0.55000000 0.010497
0.10000000 0.30000000 0.35000000 0.010497
0.05000000 -0.20000000 -0.45000000 0.010500
-0.35000000 -0.80000000 -0.45000000 0.010501
0.05000000 0.00000000 0.35000000 0.010503
0.05000000 0.70000000 -0.55000000 0.010503
0.10000000 0.70000000 0.35000000 0.010504
-0.10000000 0.85000000 -0.40000000 0.010505
-0.80000000 0.20000000 -0.45000000 0.010505
0.20000000 -0.15000000 -0.50000000 0.010506
0.55000000 0.40000000 -0.50000000 0.010507
-0.75000000 -0.35000000 -0.55000000 0.010508
-0.20000000 0.50000000 -0.65000000 0.010510
0.25000000 0.75000000 -0.45000000 0.010511
0.40000000 0.20000000 -0.65000000 0.010512
0.20000000 0.60000000 -0.50000000 0.010513
0.15000000 0.50000000 -0.50000000 0.010513
-0.50000000 -0.45000000 -0.60000000 0.010515
-0.90000000 0.15000000 0.35000000 0.010516
-0.50000000 0.05000000 -0.45000000 0.010518
-0.80000000 0.45000000 0.25000000 0.010519
0.00000000 0.40000000 0.35000000 0.010522
0.45000000 0.15000000 -0.80000000 0.010523
0.25000000 0.65000000 -0.50000000 0.010524
0.15000000 -0.40000000 -0.45000000 0.010524
-0.05000000 -0.95000000 -0.40000000 0.010525
0.95000000 -0.35000000 -0.20000000 0.010525
0.75000000 -0.40000000 0.30000000 0.010525
-0.10000000 0.25000000 0.40000000 0.010525
0.45000000 0.40000000 -0.50000000 0.010526
0.15000000 0.45000000 -0.55000000 0.010527
-0.75000000 -0.10000000 -0.55000000 0.010527
0.00000000 -1.00000000 0.25000000 0.010527
0.45000000 0.10000000 -0.55000000 0.010528
0.40000000 0.25000000 -0.55000000 0.010529
-0.70000000 0.15000000 0.30000000 0.010529
0.15000000 0.15000000 0.45000000 0.010531
0.60000000 0.20000000 -0.50000000 0.010531
-0.40000000 -0.60000000 -0.60000000 0.010533
0.20000000 0.35000000 0.35000000 0.010533
0.40000000 -0.25000000 0.40000000 0.010533
0.70000000 0.05000000 0.40000000 0.010534
0.15000000 0.15000000 -0.65000000 0.010534
0.45000000 -0.05000000 -0.70000000 0.010534
0.25000000 -0.60000000 -0.45000000 0.010535
-0.05000000 0.45000000 -0.70000000 0.010535
-0.65000000 -0.50000000 -0.60000000 0.010537
-0.85000000 0.50000000 -0.30000000 0.010537
0.95000000 0.15000000 0.15000000 0.010537
-0.65000000 0.35000000 0.30000000 0.010538
-0.45000000 0.45000000 -0.50000000 0.010540
-0.05000000 -0.75000000 0.40000000 0.010540
0.55000000 -0.20000000 0.40000000 0.010540
0.65000000 -0.30000000 0.40000000 0.010542
-0.75000000 -0.30000000 0.40000000 0.010544
0.45000000 0.20000000 0.40000000 0.010545
0.25000000 0.55000000 -0.55000000 0.010546
0.55000000 0.10000000 -0.50000000 0.010546
0.20000000 0.45000000 -0.55000000 0.010547
-0.30000000 -0.05000000 0.25000000 0.010549
-0.45000000 0.75000000 0.30000000 0.010549
0.20000000 0.50000000 0.35000000 0.010554
0.40000000 0.75000000 -0.40000000 0.010554
-0.40000000 -0.70000000 0.50000000 0.010556
-0.35000000 1.00000000 0.05000000 0.010556
-0.80000000 0.15000000 -0.45000000 0.010556
0.30000000 -0.70000000 -0.45000000 0.010556
0.65000000 -0.55000000 0.35000000 0.010557
0.40000000 0.25000000 0.35000000 0.010557
-0.50000000 -0.60000000 -0.65000000 0.010557
0.50000000 -0.45000000 -0.50000000 0.010558
0.30000000 0.45000000 -0.55000000 0.010558
0.55000000 0.00000000 -0.75000000 0.010559
0.25000000 -0.40000000 -0.45000000 0.010559
-0.35000000 0.05000000 -0.45000000 0.010560
0.60000000 0.00000000 0.40000000 0.010561
-0.15000000 0.15000000 0.35000000 0.010561
-0.05000000 0.00000000 -0.45000000 0.010564
-0.30000000 0.00000000 0.25000000 0.010566
0.75000000 0.20000000 -0.45000000 0.010567
-0.60000000 0.10000000 -0.45000000 0.010568
0.20000000 0.70000000 -0.50000000 0.010568
0.40000000 0.30000000 -0.55000000 0.010569
-0.15000000 0.35000000 0.40000000 0.010570
-0.15000000 -0.90000000 -0.45000000 0.010571
-0.65000000 0.10000000 -0.45000000 0.010572
0.40000000 -0.80000000 -0.40000000 0.010573
-0.60000000 0.35000000 0.30000000 0.010573
-0.45000000 0.65000000 -0.55000000 0.010574
0.20000000 0.30000000 0.35000000 0.010575
-0.55000000 -0.30000000 -0.55000000 0.010575
-0.15000000 -0.10000000 0.25000000 0.010575
0.50000000 0.45000000 -0.55000000 0.010576
0.60000000 0.85000000 0.00000000 0.010576
0.95000000 0.10000000 -0.25000000 0.010576
0.25000000 -0.95000000 0.25000000 0.010576
0.40000000 -0.35000000 0.35000000 0.010576
-0.70000000 -0.20000000 -0.55000000 0.010576
0.50000000 0.25000000 0.40000000 0.010577
-0.50000000 0.55000000 0.35000000 0.010577
-0.40000000 0.15000000 0.30000000 0.010577
-0.70000000 0.35000000 0.30000000 0.010578
-0.15000000 -0.65000000 0.40000000 0.010579
-0.60000000 -0.60000000 -0.55000000 0.010579
0.60000000 -0.55000000 0.35000000 0.010580
-0.70000000 -0.50000000 -0.50000000 0.010581
0.00000000 0.60000000 -0.75000000 0.010581
0.85000000 -0.10000000 0.30000000 0.010581
0.25000000 -0.35000000 0.30000000 0.010581
-0.15000000 -0.55000000 -0.45000000 0.010582
0.50000000 0.10000000 0.40000000 0.010583
0.20000000 0.35000000 -0.80000000 0.010584
-0.70000000 0.10000000 -0.45000000 0.010585
0.00000000 -0.05000000 -0.45000000 0.010585
-0.30000000 0.65000000 -0.65000000 0.010586
0.85000000 -0.30000000 -0.35000000 0.010586
-0.10000000 -0.20000000 -0.40000000 0.010587
0.65000000 0.20000000 -0.55000000 0.010587
0.25000000 0.40000000 -0.80000000 0.010587
-0.75000000 -0.35000000 0.35000000 0.010587
0.65000000 -0.05000000 0.40000000 0.010588
0.20000000 -0.50000000 0.25000000 0.010588
-0.15000000 -0.45000000 0.30000000 0.010589
0.15000000 0.65000000 -0.55000000 0.010589
-0.25000000 0.40000000 0.40000000 0.010589
-0.25000000 0.55000000 0.40000000 0.010590
0.30000000 0.30000000 0.35000000 0.010591
0.05000000 0.60000000 -0.60000000 0.010591
0.40000000 0.65000000 -0.45000000 0.010592
0.70000000 0.00000000 0.40000000 0.010593
0.30000000 0.65000000 -0.50000000 0.010593
0.10000000 0.65000000 0.35000000 0.010593
0.15000000 -0.60000000 0.25000000 0.010596
0.65000000 0.10000000 0.40000000 0.010596
-0.75000000 -0.25000000 0.45000000 0.010599
0.65000000 -0.25000000 0.35000000 0.010599
-0.60000000 0.05000000 -0.45000000 0.010599
-0.80000000 -0.20000000 0.45000000 0.010601
0.00000000 0.20000000 0.40000000 0.010603
-0.10000000 -0.90000000 0.35000000 0.010606
-0.15000000 -0.20000000 -0.40000000 0.010606
-0.70000000 -0.30000000 -0.60000000 0.010607
-0.40000000 0.40000000 -0.50000000 0.010607
0.75000000 -0.35000000 -0.50000000 0.010607
0.35000000 0.20000000 -0.80000000 0.010609
-0.55000000 0.30000000 -0.45000000 0.010610
-0.30000000 0.35000000 -0.50000000 0.010610
-0.15000000 0.85000000 -0.40000000 0.010612
0.65000000 -0.45000000 -0.55000000 0.010612
-0.60000000 -0.25000000 -0.55000000 0.010612
0.60000000 -0.25000000 0.45000000 0.010613
0.65000000 0.05000000 0.40000000 0.010614
-0.70000000 -0.20000000 0.45000000 0.010614
-0.80000000 0.35000000 0.30000000 0.010614
0.35000000 0.45000000 0.35000000 0.010619
0.20000000 -0.60000000 0.25000000 0.010622
0.30000000 0.25000000 0.35000000 0.010622
-0.20000000 -0.25000000 -0.40000000 0.010623
-0.55000000 -0.55000000 0.50000000 0.010623
0.50000000 0.40000000 -0.60000000 0.010624
0.15000000 -0.40000000 0.25000000 0.010624
0.35000000 0.55000000 0.35000000 0.010627
0.70000000 0.10000000 0.40000000 0.010627
-0.40000000 -0.80000000 0.35000000 0.010629
0.75000000 0.35000000 -0.40000000 0.010630
-0.35000000 -0.35000000 0.35000000 0.010631
-0.20000000 0.50000000 0.40000000 0.010633
0.30000000 0.55000000 0.35000000 0.010633
-0.55000000 -0.75000000 -0.45000000 0.010634
-0.30000000 0.45000000 -0.55000000 0.010634
0.05000000 0.20000000 0.40000000 0.010634
0.00000000 0.40000000 -0.70000000 0.010634
-0.55000000 0.60000000 0.35000000 0.010635
0.60000000 -0.20000000 0.35000000 0.010636
-0.15000000 -0.25000000 -0.40000000 0.010636
0.10000000 -0.70000000 -0.45000000 0.010637
0.55000000 0.40000000 -0.45000000 0.010638
0.20000000 0.55000000 -0.50000000 0.010639
0.35000000 0.35000000 0.35000000 0.010639
0.05000000 -0.10000000 0.30000000 0.010640
0.50000000 -0.15000000 0.50000000 0.010640
0.70000000 -0.05000000 0.40000000 0.010641
0.00000000 -0.40000000 -0.40000000 0.010643
0.20000000 -0.85000000 -0.45000000 0.010644
0.60000000 0.60000000 -0.40000000 0.010645
0.60000000 -0.20000000 0.50000000 0.010645
-0.70000000 0.60000000 0.25000000 0.010645
0.80000000 0.40000000 0.25000000 0.010647
-0.50000000 -0.65000000 -0.60000000 0.010648
-0.10000000 0.50000000 0.35000000 0.010649
-0.75000000 0.10000000 -0.45000000 0.010649
-0.95000000 -0.20000000 -0.40000000 0.010649
0.25000000 0.60000000 -0.50000000 0.010650
-0.55000000 -0.35000000 0.45000000 0.010650
0.20000000 0.25000000 -0.75000000 0.010650
0.15000000 0.00000000 0.40000000 0.010650
-0.45000000 -0.70000000 -0.50000000 0.010650
0.45000000 0.45000000 -0.45000000 0.010651
-0.20000000 -0.30000000 0.25000000 0.010651
0.20000000 0.75000000 -0.45000000 0.010651
-0.45000000 -0.55000000 0.50000000 0.010651
-0.20000000 -0.60000000 -0.50000000 0.010651
0.30000000 0.30000000 -0.60000000 0.010652
0.05000000 -0.65000000 0.30000000 0.010654
-0.30000000 -0.75000000 0.35000000 0.010655
0.60000000 0.50000000 0.35000000 0.010657
-0.55000000 0.05000000 -0.45000000 0.010657
0.30000000 -0.25000000 -0.50000000 0.010657
-0.30000000 -0.75000000 -0.50000000 0.010660
-0.70000000 -0.45000000 -0.55000000 0.010662
0.60000000 -0.10000000 -0.70000000 0.010663
0.15000000 0.45000000 -0.60000000 0.010664
0.30000000 0.00000000 0.45000000 0.010667
0.40000000 0.55000000 -0.55000000 0.010669
-0.40000000 -0.70000000 0.40000000 0.010669
-0.45000000 -0.75000000 -0.45000000 0.010669
0.50000000 0.40000000 -0.45000000 0.010669
-0.05000000 0.45000000 0.35000000 0.010669
-0.25000000 -0.05000000 0.25000000 0.010670
0.50000000 0.50000000 -0.45000000 0.010671
0.55000000 -0.75000000 -0.35000000 0.010672
0.70000000 0.30000000 0.35000000 0.010672
0.10000000 -0.30000000 -0.45000000 0.010672
-0.30000000 -0.50000000 -0.50000000 0.010673
0.65000000 0.25000000 -0.50000000 0.010673
0.15000000 0.30000000 0.35000000 0.010674
-0.30000000 0.15000000 0.30000000 0.010675
-0.90000000 0.35000000 -0.35000000 0.010675
0.25000000 -0.30000000 0.30000000 0.010676
-0.05000000 0.85000000 0.30000000 0.010677
0.55000000 -0.25000000 0.45000000 0.010678
-0.80000000 0.25000000 0.30000000 0.010679
0.00000000 0.50000000 -0.75000000 0.010679
-1.00000000 0.05000000 0.25000000 0.010681
-0.40000000 -0.70000000 -0.60000000 0.010681
-0.05000000 0.65000000 -0.60000000 0.010682
-0.75000000 -0.30000000 0.35000000 0.010682
0.05000000 0.25000000 -0.65000000 0.010685
0.20000000 0.40000000 -0.60000000 0.010685
-0.90000000 -0.10000000 0.35000000 0.010685
0.25000000 -0.10000000 0.40000000 0.010686
0.60000000 0.15000000 0.40000000 0.010687
-0.50000000 -0.30000000 -0.50000000 0.010689
0.25000000 0.30000000 -0.80000000 0.010691
0.40000000 0.60000000 -0.50000000 0.010692
-0.85000000 0.15000000 -0.45000000 0.010692
-0.25000000 -0.85000000 -0.45000000 0.010694
0.25000000 0.15000000 -0.70000000 0.010694
0.65000000 0.35000000 -0.45000000 0.010694
-0.45000000 -0.15000000 -0.45000000 0.010695
-0.45000000 -0.35000000 0.40000000 0.010695
0.00000000 0.15000000 0.40000000 0.010697
0.55000000 0.35000000 -0.55000000 0.010699
0.15000000 0.60000000 0.35000000 0.010699
0.40000000 0.35000000 -0.55000000 0.010699
0.35000000 -0.45000000 -0.45000000 0.010699
0.20000000 -0.35000000 -0.45000000 0.010699
-0.20000000 -0.80000000 -0.55000000 0.010700
0.25000000 -0.10000000 -0.55000000 0.010701
0.75000000 -0.20000000 -0.50000000 0.010701
-0.60000000 0.70000000 -0.40000000 0.010705
0.25000000 0.25000000 0.35000000 0.010706
0.30000000 -0.40000000 -0.45000000 0.010708
0.25000000 0.50000000 -0.55000000 0.010709
0.70000000 -0.40000000 -0.55000000 0.010709
0.45000000 0.30000000 0.35000000 0.010709
0.10000000 0.50000000 -0.50000000 0.010710
0.55000000 -0.70000000 -0.40000000 0.010711
0.10000000 0.50000000 -0.80000000 0.010711
0.30000000 0.35000000 -0.70000000 0.010712
0.25000000 0.30000000 0.35000000 0.010712
-0.45000000 -0.60000000 0.50000000 0.010714
-0.45000000 -0.65000000 0.40000000 0.010714
-0.55000000 -0.15000000 -0.50000000 0.010715
0.25000000 0.00000000 -0.60000000 0.010716
-0.35000000 0.20000000 -0.45000000 0.010716
0.35000000 0.05000000 -0.70000000 0.010716
-0.65000000 -0.15000000 -0.50000000 0.010717
0.35000000 0.40000000 -0.55000000 0.010717
0.50000000 0.10000000 -0.50000000 0.010718
0.30000000 -0.75000000 -0.45000000 0.010718
-0.50000000 -0.65000000 -0.50000000 0.010719
-0.45000000 0.25000000 -0.45000000 0.010720
-0.40000000 0.55000000 -0.55000000 0.010720
0.40000000 0.15000000 -0.60000000 0.010721
0.05000000 0.55000000 -0.65000000 0.010721
-0.25000000 -0.20000000 0.25000000 0.010723
0.40000000 0.70000000 0.35000000 0.010724
0.60000000 -0.30000000 0.40000000 0.010725
-0.10000000 -0.80000000 -0.55000000 0.010725
0.50000000 -0.25000000 0.45000000 0.010726
-0.65000000 0.05000000 -0.45000000 0.010727
-0.05000000 0.25000000 -0.60000000 0.010727
-0.85000000 -0.25000000 -0.50000000 0.010729
0.10000000 0.20000000 -0.65000000 0.010729
-0.40000000 -0.70000000 0.45000000 0.010729
-0.35000000 -0.75000000 -0.45000000 0.010730
-0.45000000 0.05000000 -0.45000000 0.010730
0.45000000 0.40000000 -0.55000000 0.010731
-0.30000000 0.75000000 0.35000000 0.010732
0.15000000 -0.10000000 -0.50000000 0.010732
-0.75000000 0.35000000 0.30000000 0.010732
0.15000000 -0.60000000 -0.45000000 0.010734
-0.05000000 0.60000000 -0.75000000 0.010735
0.80000000 -0.45000000 0.25000000 0.010736
0.15000000 0.70000000 0.35000000 0.010736
0.50000000 0.30000000 -0.50000000 0.010737
-0.35000000 -0.10000000 0.25000000 0.010738
0.40000000 0.15000000 -0.50000000 0.010738
-0.50000000 -0.40000000 -0.55000000 0.010739
0.60000000 0.30000000 -0.45000000 0.010741
0.30000000 0.50000000 -0.55000000 0.010741
0.65000000 0.45000000 0.35000000 0.010742
-0.55000000 -0.75000000 0.30000000 0.010742
-0.50000000 -0.50000000 0.50000000 0.010743
-0.65000000 0.60000000 0.30000000 0.010744
0.20000000 0.25000000 0.35000000 0.010744
-0.65000000 -0.60000000 -0.50000000 0.010746
0.20000000 0.40000000 0.35000000 0.010746
0.95000000 -0.05000000 0.20000000 0.010746
-0.85000000 -0.20000000 0.35000000 0.010747
0.35000000 -0.30000000 0.35000000 0.010748
0.45000000 -0.75000000 -0.40000000 0.010748
-0.05000000 -0.40000000 -0.40000000 0.010750
-0.10000000 -0.85000000 0.45000000 0.010752
0.50000000 0.40000000 -0.50000000 0.010753
0.40000000 0.50000000 0.35000000 0.010755
-0.30000000 -0.10000000 0.25000000 0.010755
0.45000000 0.25000000 -0.50000000 0.010756
0.55000000 0.10000000 0.40000000 0.010759
-0.45000000 -0.10000000 -0.45000000 0.010759
0.30000000 0.35000000 -0.60000000 0.010759
-0.70000000 -0.35000000 -0.60000000 0.010760
-0.50000000 -0.55000000 0.40000000 0.010760
0.10000000 0.55000000 0.35000000 0.010760
-0.40000000 -0.65000000 -0.60000000 0.010761
-0.35000000 -0.30000000 -0.45000000 0.010762
-0.30000000 -0.70000000 -0.55000000 0.010762
0.00000000 -0.35000000 -0.40000000 0.010762
0.10000000 -0.95000000 -0.40000000 0.010763
0.20000000 0.45000000 0.35000000 0.010764
-0.80000000 -0.30000000 0.30000000 0.010765
-0.60000000 0.00000000 -0.45000000 0.010766
-0.65000000 -0.25000000 -0.55000000 0.010767
0.50000000 -0.25000000 -0.60000000 0.010769
0.50000000 0.15000000 -0.70000000 0.010770
0.70000000 0.35000000 0.35000000 0.010770
-0.40000000 -0.75000000 0.35000000 0.010772
-0.50000000 0.00000000 -0.45000000 0.010774
0.60000000 0.25000000 -0.45000000 0.010775
0.60000000 0.15000000 -0.50000000 0.010775
-0.65000000 -0.35000000 0.50000000 0.010775
0.45000000 0.55000000 -0.50000000 0.010777
-0.10000000 -0.25000000 -0.40000000 0.010777
0.35000000 0.70000000 -0.45000000 0.010779
-0.55000000 0.00000000 -0.45000000 0.010780
-0.25000000 0.15000000 0.30000000 0.010780
0.45000000 0.20000000 -0.80000000 0.010780
0.55000000 0.35000000 -0.50000000 0.010781
-0.50000000 -0.05000000 -0.45000000 0.010781
-0.20000000 0.45000000 0.40000000 0.010782
-0.65000000 -0.65000000 0.30000000 0.010782
0.60000000 0.35000000 -0.45000000 0.010782
0.05000000 0.65000000 0.35000000 0.010783
-0.05000000 -0.90000000 0.40000000 0.010784
-0.40000000 -0.40000000 -0.50000000 0.010785
0.50000000 0.15000000 -0.75000000 0.010785
-0.45000000 -0.05000000 -0.45000000 0.010786
0.55000000 0.25000000 -0.45000000 0.010787
-0.40000000 0.25000000 0.30000000 0.010787
-0.30000000 -0.35000000 -0.45000000 0.010788
-0.55000000 0.70000000 -0.45000000 0.010789
0.15000000 0.65000000 0.35000000 0.010789
-0.30000000 -0.70000000 0.50000000 0.010791
0.45000000 -0.20000000 -0.60000000 0.010792
0.75000000 0.10000000 -0.50000000 0.010792
-0.50000000 0.35000000 -0.45000000 0.010792
0.15000000 0.75000000 0.35000000 0.010795
0.60000000 0.25000000 0.35000000 0.010795
0.45000000 0.35000000 -0.55000000 0.010798
0.75000000 -0.25000000 -0.50000000 0.010800
0.65000000 0.00000000 0.40000000 0.010800
0.25000000 0.45000000 -0.55000000 0.010801
-0.80000000 -0.10000000 0.45000000 0.010804
0.00000000 -1.00000000 -0.35000000 0.010806
0.10000000 -0.30000000 0.25000000 0.010808
0.35000000 -0.65000000 -0.40000000 0.010808
-0.65000000 -0.55000000 -0.55000000 0.010808
-0.25000000 0.30000000 0.35000000 0.010809
-0.05000000 -0.35000000 -0.40000000 0.010810
0.30000000 -0.35000000 -0.45000000 0.010810
-0.85000000 -0.15000000 -0.55000000 0.010810
-0.50000000 0.80000000 0.20000000 0.010815
-0.25000000 -0.65000000 -0.55000000 0.010815
0.45000000 -0.05000000 0.40000000 0.010816
0.55000000 -0.20000000 0.50000000 0.010818
-0.60000000 -0.95000000 -0.20000000 0.010819
0.25000000 0.55000000 0.35000000 0.010819
0.55000000 0.40000000 -0.55000000 0.010820
0.70000000 -0.05000000 -0.55000000 0.010821
0.80000000 -0.05000000 -0.45000000 0.010822
0.30000000 0.85000000 0.25000000 0.010822
0.15000000 0.75000000 -0.45000000 0.010823
0.85000000 0.30000000 0.25000000 0.010823
0.05000000 0.10000000 0.40000000 0.010823
0.60000000 0.10000000 -0.50000000 0.010829
-0.80000000 -0.75000000 -0.25000000 0.010829
-0.30000000 -0.90000000 -0.40000000 0.010829
-0.80000000 -0.70000000 -0.30000000 0.010829
-0.45000000 -0.90000000 -0.35000000 0.010830
0.30000000 0.45000000 0.35000000 0.010831
0.75000000 -0.30000000 -0.50000000 0.010832
0.00000000 -0.95000000 -0.40000000 0.010833
0.40000000 0.40000000 -0.50000000 0.010833
0.60000000 0.20000000 0.40000000 0.010833
-0.45000000 0.55000000 0.35000000 0.010833
-0.40000000 0.65000000 0.35000000 0.010834
-0.50000000 -0.60000000 0.50000000 0.010835
-0.75000000 0.50000000 0.25000000 0.010836
-0.35000000 0.75000000 -0.50000000 0.010836
-0.25000000 -0.25000000 0.25000000 0.010836
-0.35000000 -0.45000000 0.40000000 0.010836
-0.20000000 0.40000000 0.40000000 0.010836
0.55000000 0.25000000 0.40000000 0.010837
0.60000000 -0.45000000 -0.55000000 0.010838
-0.35000000 -0.05000000 0.25000000 0.010839
0.10000000 0.05000000 0.40000000 0.010840
0.15000000 -0.35000000 -0.45000000 0.010840
0.00000000 -0.20000000 0.25000000 0.010840
-0.25000000 -0.90000000 0.30000000 0.010841
0.20000000 -0.40000000 -0.45000000 0.010841
-0.05000000 0.65000000 -0.65000000 0.010841
0.55000000 -0.80000000 -0.30000000 0.010843
0.55000000 -0.20000000 0.35000000 0.010843
-0.45000000 -0.55000000 -0.60000000 0.010843
0.70000000 0.00000000 -0.50000000 0.010844
0.25000000 -0.85000000 0.30000000 0.010846
0.10000000 0.75000000 0.35000000 0.010846
-0.30000000 0.65000000 0.35000000 0.010846
-0.20000000 -0.20000000 -0.40000000 0.010847
0.40000000 -0.30000000 -0.50000000 0.010848
-0.50000000 -0.05000000 0.30000000 0.010849
-0.65000000 0.65000000 0.25000000 0.010850
0.20000000 0.90000000 -0.30000000 0.010851
0.60000000 -0.70000000 0.25000000 0.010851
0.45000000 0.40000000 -0.45000000 0.010851
-0.45000000 -0.70000000 0.35000000 0.010851
-0.90000000 -0.40000000 0.25000000 0.010851
0.00000000 0.75000000 -0.50000000 0.010851
0.25000000 0.50000000 0.35000000 0.010852
-0.10000000 0.00000000 0.30000000 0.010853
-0.30000000 0.55000000 0.40000000 0.010853
-0.55000000 -0.05000000 -0.45000000 0.010854
-0.20000000 0.80000000 -0.45000000 0.010855
-0.65000000 -0.45000000 0.30000000 0.010855
0.55000000 -0.30000000 -0.60000000 0.010856
-0.90000000 0.25000000 -0.40000000 0.010858
-0.60000000 -0.60000000 -0.50000000 0.010859
-0.95000000 0.25000000 0.25000000 0.010860
0.70000000 0.05000000 -0.50000000 0.010861
0.10000000 0.55000000 -0.70000000 0.010862
0.70000000 0.55000000 -0.35000000 0.010862
-0.65000000 -0.65000000 -0.45000000 0.010863
-0.10000000 -0.80000000 0.45000000 0.010864
0.20000000 -0.05000000 -0.55000000 0.010865
-0.10000000 0.55000000 0.35000000 0.010866
-0.65000000 -0.50000000 0.30000000 0.010866
-0.10000000 0.70000000 -0.55000000 0.010868
0.30000000 -0.20000000 0.35000000 0.010872
0.25000000 -0.80000000 0.30000000 0.010873
0.15000000 0.00000000 -0.55000000 0.010873
-0.10000000 0.60000000 0.35000000 0.010874
-0.35000000 -0.65000000 0.50000000 0.010874
0.35000000 0.25000000 -0.55000000 0.010874
-0.70000000 0.45000000 0.30000000 0.010874
-0.25000000 0.40000000 -0.55000000 0.010875
-0.40000000 0.50000000 0.35000000 0.010875
0.40000000 -0.55000000 -0.45000000 0.010875
0.55000000 0.70000000 0.25000000 0.010875
-0.35000000 0.20000000 0.30000000 0.010875
0.20000000 0.65000000 -0.50000000 0.010875
-0.40000000 0.00000000 -0.45000000 0.010876
-0.40000000 -0.50000000 -0.55000000 0.010876
-0.30000000 0.60000000 -0.65000000 0.010877
0.15000000 0.45000000 -0.50000000 0.010877
-0.10000000 0.15000000 -0.50000000 0.010877
-0.70000000 -0.60000000 0.30000000 0.010878
-0.55000000 -0.20000000 -0.50000000 0.010878
0.40000000 0.80000000 -0.35000000 0.010878
-0.20000000 -0.90000000 0.30000000 0.010878
0.35000000 0.20000000 -0.60000000 0.010880
-0.40000000 -0.90000000 0.25000000 0.010881
-0.30000000 0.70000000 0.35000000 0.010881
0.85000000 -0.70000000 0.00000000 0.010881
0.35000000 0.30000000 -0.70000000 0.010881
0.05000000 0.50000000 -0.55000000 0.010883
-0.20000000 0.75000000 -0.50000000 0.010883
0.50000000 -0.35000000 -0.55000000 0.010884
-0.05000000 -0.70000000 -0.50000000 0.010885
0.55000000 -0.25000000 0.40000000 0.010885
0.55000000 -0.15000000 0.45000000 0.010885
0.60000000 0.05000000 -0.50000000 0.010885
-0.60000000 0.60000000 -0.45000000 0.010887
-0.55000000 0.35000000 0.30000000 0.010888
-0.35000000 0.15000000 0.30000000 0.010889
0.45000000 0.25000000 0.35000000 0.010889
0.25000000 -0.60000000 0.25000000 0.010891
0.20000000 -0.05000000 0.40000000 0.010891
-0.25000000 -0.80000000 -0.50000000 0.010892
-0.15000000 0.20000000 -0.50000000 0.010892
-0.75000000 -0.15000000 0.45000000 0.010894
0.35000000 -0.05000000 -0.65000000 0.010894
0.30000000 -0.40000000 0.30000000 0.010895
-0.65000000 -0.55000000 0.30000000 0.010895
0.60000000 0.00000000 -0.70000000 0.010896
0.05000000 0.25000000 0.35000000 0.010896
-0.20000000 -0.40000000 -0.45000000 0.010897
0.60000000 -0.30000000 0.45000000 0.010898
0.10000000 0.55000000 -0.50000000 0.010901
-0.30000000 0.50000000 0.40000000 0.010902
-0.35000000 -0.55000000 -0.55000000 0.010904
0.30000000 0.60000000 -0.55000000 0.010905
-0.80000000 0.00000000 0.40000000 0.010907
-0.80000000 0.10000000 0.35000000 0.010908
-0.80000000 -0.10000000 -0.55000000 0.010908
0.50000000 -0.10000000 0.40000000 0.010908
-0.15000000 -0.75000000 0.45000000 0.010909
-0.75000000 -0.65000000 0.25000000 0.010910
0.55000000 -0.25000000 0.35000000 0.010911
-0.60000000 -0.50000000 0.30000000 0.010912
-0.20000000 -0.85000000 -0.50000000 0.010913
0.45000000 0.10000000 -0.60000000 0.010913
0.25000000 0.20000000 0.35000000 0.010913
0.70000000 -0.55000000 -0.45000000 0.010914
0.30000000 0.25000000 -0.60000000 0.010914
0.20000000 0.60000000 0.35000000 0.010915
-0.45000000 -0.25000000 -0.45000000 0.010916
-0.20000000 0.25000000 -0.50000000 0.010921
-0.75000000 -0.50000000 -0.45000000 0.010922
-0.85000000 -0.35000000 -0.45000000 0.010922
0.15000000 0.60000000 -0.50000000 0.010923
0.40000000 0.55000000 0.35000000 0.010924
-0.15000000 0.45000000 0.35000000 0.010925
0.05000000 0.50000000 0.35000000 0.010926
0.60000000 -0.35000000 0.35000000 0.010926
0.10000000 0.60000000 0.35000000 0.010928
0.40000000 0.20000000 -0.50000000 0.010930
0.40000000 -0.80000000 0.25000000 0.010930
0.30000000 0.25000000 -0.55000000 0.010931
0.00000000 0.85000000 0.30000000 0.010931
-0.75000000 -0.20000000 0.45000000 0.010931
-0.55000000 -0.85000000 -0.35000000 0.010931
0.05000000 0.55000000 -0.55000000 0.010933
0.45000000 -0.20000000 0.45000000 0.010934
-0.40000000 0.60000000 0.35000000 0.010935
-0.80000000 0.05000000 -0.50000000 0.010938
-0.55000000 -0.60000000 -0.50000000 0.010938
0.70000000 -0.20000000 -0.60000000 0.010939
-0.15000000 0.75000000 -0.50000000 0.010939
0.25000000 0.30000000 -0.55000000 0.010939
-0.50000000 -0.40000000 0.45000000 0.010939
0.65000000 0.75000000 0.10000000 0.010942
0.80000000 0.65000000 -0.10000000 0.010943
0.20000000 0.50000000 -0.50000000 0.010944
-0.45000000 0.65000000 0.35000000 0.010945
-0.70000000 -0.70000000 0.25000000 0.010946
-0.40000000 -0.70000000 -0.50000000 0.010947
0.20000000 0.20000000 0.35000000 0.010947
-0.10000000 0.50000000 -0.70000000 0.010947
0.70000000 -0.15000000 -0.55000000 0.010948
-0.75000000 -0.75000000 -0.30000000 0.010948
0.10000000 0.45000000 -0.80000000 0.010948
0.35000000 0.45000000 -0.50000000 0.010948
-0.70000000 -0.35000000 0.50000000 0.010949
-0.35000000 0.50000000 -0.55000000 0.010950
0.25000000 0.35000000 -0.60000000 0.010951
0.80000000 0.20000000 -0.40000000 0.010953
0.65000000 0.30000000 -0.45000000 0.010953
-0.70000000 0.00000000 0.35000000 0.010954
-0.45000000 0.00000000 -0.45000000 0.010954
-0.65000000 -0.40000000 0.30000000 0.010954
0.45000000 -0.40000000 -0.50000000 0.010955
0.85000000 0.60000000 0.00000000 0.010955
-0.15000000 -0.35000000 0.25000000 0.010956
-0.30000000 -0.80000000 -0.45000000 0.010956
0.10000000 0.45000000 -0.50000000 0.010957
0.10000000 0.55000000 -0.75000000 0.010957
-0.15000000 1.00000000 -0.20000000 0.010957
-0.50000000 0.30000000 -0.45000000 0.010958
0.05000000 0.70000000 0.35000000 0.010959
-0.15000000 0.05000000 0.30000000 0.010959
-0.75000000 0.00000000 -0.50000000 0.010960
-0.55000000 0.40000000 0.30000000 0.010962
0.45000000 -0.10000000 0.45000000 0.010962
0.15000000 0.20000000 -0.70000000 0.010962
-0.15000000 0.55000000 -0.70000000 0.010963
0.65000000 0.05000000 -0.50000000 0.010964
0.00000000 0.10000000 -0.50000000 0.010964
-0.90000000 0.10000000 -0.45000000 0.010966
0.35000000 0.20000000 0.35000000 0.010967
0.20000000 -0.60000000 -0.45000000 0.010969
-0.70000000 -0.05000000 -0.50000000 0.010970
0.35000000 -0.25000000 -0.50000000 0.010971
0.40000000 0.05000000 0.35000000 0.010971
0.25000000 0.80000000 -0.40000000 0.010971
0.40000000 -0.10000000 -0.65000000 0.010973
-0.10000000 -0.60000000 -0.45000000 0.010976
0.35000000 0.40000000 0.35000000 0.010977
0.00000000 0.30000000 -0.65000000 0.010977
0.05000000 -0.75000000 -0.45000000 0.010977
-0.10000000 0.85000000 0.30000000 0.010978
0.15000000 0.15000000 0.40000000 0.010978
0.25000000 0.40000000 -0.75000000 0.010979
-0.60000000 -0.10000000 0.35000000 0.010979
-0.80000000 -0.50000000 0.30000000 0.010980
0.55000000 0.30000000 -0.45000000 0.010980
-0.50000000 0.65000000 0.35000000 0.010981
0.35000000 0.55000000 -0.55000000 0.010981
-0.75000000 -0.15000000 -0.55000000 0.010982
-0.45000000 -0.60000000 0.45000000 0.010982
0.20000000 0.40000000 -0.55000000 0.010982
-0.40000000 -0.65000000 0.50000000 0.010983
0.40000000 0.45000000 0.35000000 0.010984
0.10000000 -0.75000000 -0.45000000 0.010984
-0.35000000 0.40000000 0.35000000 0.010985
0.60000000 -0.05000000 -0.60000000 0.010985
0.40000000 -0.50000000 -0.45000000 0.010985
-0.35000000 0.65000000 0.35000000 0.010987
-0.85000000 -0.25000000 0.30000000 0.010987
-0.75000000 0.05000000 0.35000000 0.010987
0.45000000 0.30000000 -0.50000000 0.010988
-0.50000000 0.55000000 -0.50000000 0.010989
0.30000000 0.20000000 0.35000000 0.010991
-0.40000000 0.70000000 -0.55000000 0.010991
0.20000000 -0.30000000 -0.45000000 0.010992
-0.25000000 0.05000000 0.25000000 0.010993
-0.20000000 0.25000000 0.35000000 0.010993
-1.00000000 -0.15000000 0.25000000 0.010994
-0.40000000 -0.50000000 0.45000000 0.010994
-0.60000000 -0.05000000 -0.45000000 0.010995
0.00000000 0.05000000 0.35000000 0.010995
-0.45000000 -0.95000000 -0.30000000 0.010995
0.00000000 0.80000000 -0.45000000 0.010996
-0.15000000 0.10000000 -0.45000000 0.010998
-0.95000000 0.05000000 0.30000000 0.010998
-0.55000000 -0.55000000 -0.65000000 0.011000
-0.25000000 -0.65000000 0.45000000 0.011001
-0.30000000 0.05000000 0.25000000 0.011002
0.90000000 0.10000000 0.25000000 0.011004
0.40000000 -0.15000000 0.45000000 0.011004
-0.35000000 0.70000000 0.35000000 0.011005
0.55000000 -0.30000000 0.40000000 0.011007
-0.45000000 0.35000000 -0.45000000 0.011007
0.75000000 -0.15000000 -0.50000000 0.011008
0.50000000 -0.55000000 0.30000000 0.011008
0.40000000 0.40000000 0.35000000 0.011012
-0.65000000 -0.40000000 0.40000000 0.011012
0.85000000 -0.40000000 -0.30000000 0.011012
0.00000000 -0.05000000 0.30000000 0.011013
-0.30000000 -0.75000000 0.40000000 0.011015
-0.35000000 -0.60000000 0.45000000 0.011019
0.45000000 0.15000000 -0.65000000 0.011019
0.55000000 0.35000000 -0.45000000 0.011020
0.35000000 0.20000000 -0.55000000 0.011021
0.50000000 0.35000000 -0.45000000 0.011021
-0.20000000 -0.85000000 0.35000000 0.011022
0.40000000 -0.65000000 -0.40000000 0.011022
0.30000000 0.55000000 -0.55000000 0.011023
-0.65000000 -0.60000000 0.30000000 0.011024
0.10000000 0.60000000 -0.55000000 0.011025
0.45000000 0.35000000 0.35000000 0.011025
0.30000000 0.30000000 -0.55000000 0.011025
-0.70000000 -0.35000000 0.35000000 0.011025
-0.05000000 0.20000000 -0.55000000 0.011025
-0.25000000 0.70000000 0.35000000 0.011027
0.70000000 0.45000000 -0.40000000 0.011028
0.55000000 -0.40000000 -0.55000000 0.011028
0.00000000 -0.50000000 0.25000000 0.011028
0.40000000 -0.10000000 0.45000000 0.011028
-0.95000000 0.40000000 -0.25000000 0.011029
0.35000000 -0.60000000 -0.40000000 0.011029
-0.05000000 -0.30000000 -0.40000000 0.011030
-0.75000000 0.50000000 -0.40000000 0.011031
-0.50000000 -0.55000000 0.35000000 0.011031
-0.25000000 0.75000000 0.35000000 0.011031
0.10000000 0.50000000 -0.65000000 0.011032
-0.40000000 1.00000000 -0.10000000 0.011033
-0.20000000 -0.10000000 0.25000000 0.011034
-0.50000000 -0.65000000 0.35000000 0.011034
0.10000000 0.25000000 0.35000000 0.011037
0.65000000 -0.20000000 0.35000000 0.011038
0.15000000 -0.35000000 0.25000000 0.011040
0.55000000 -0.60000000 0.30000000 0.011041
-0.40000000 0.05000000 -0.45000000 0.011041
0.45000000 -0.60000000 -0.45000000 0.011044
-0.05000000 -0.45000000 -0.40000000 0.011046
-0.80000000 -0.35000000 -0.50000000 0.011047
-0.75000000 0.20000000 0.30000000 0.011048
0.05000000 -0.40000000 -0.40000000 0.011050
-0.05000000 0.65000000 -0.55000000 0.011050
0.65000000 0.30000000 0.35000000 0.011050
-0.50000000 0.75000000 -0.40000000 0.011051
-0.05000000 -0.20000000 -0.40000000 0.011052
-0.25000000 0.45000000 0.40000000 0.011053
0.25000000 0.95000000 -0.20000000 0.011053
0.55000000 -0.60000000 -0.45000000 0.011053
-0.45000000 -0.65000000 -0.50000000 0.011053
-0.05000000 0.55000000 -0.75000000 0.011053
0.75000000 0.15000000 0.35000000 0.011054
0.10000000 0.45000000 -0.55000000 0.011054
0.55000000 0.70000000 -0.35000000 0.011055
-0.85000000 0.05000000 -0.50000000 0.011055
0.10000000 0.95000000 -0.25000000 0.011055
-0.50000000 0.75000000 0.25000000 0.011056
0.70000000 -0.55000000 0.30000000 0.011056
0.25000000 -0.15000000 0.35000000 0.011057
0.90000000 0.20000000 0.20000000 0.011057
-0.30000000 -0.55000000 0.40000000 0.011058
-0.35000000 0.60000000 -0.60000000 0.011058
0.25000000 -0.65000000 0.25000000 0.011058
-0.50000000 0.45000000 -0.45000000 0.011059
-0.05000000 -0.10000000 0.25000000 0.011059
0.05000000 -0.35000000 -0.40000000 0.011059
-0.25000000 -0.95000000 0.25000000 0.011060
-0.65000000 -0.35000000 -0.60000000 0.011061
-0.15000000 -0.65000000 -0.50000000 0.011061
-0.10000000 0.75000000 -0.50000000 0.011061
0.35000000 0.60000000 -0.55000000 0.011063
0.30000000 -0.05000000 -0.60000000 0.011063
0.40000000 0.55000000 -0.50000000 0.011063
0.50000000 -0.30000000 0.40000000 0.011063
0.40000000 -0.70000000 -0.40000000 0.011065
0.15000000 0.25000000 0.35000000 0.011065
0.40000000 -0.05000000 0.40000000 0.011066
-0.50000000 0.30000000 0.30000000 0.011067
0.05000000 0.50000000 -0.60000000 0.011067
-0.10000000 -0.65000000 -0.50000000 0.011069
0.55000000 -0.20000000 0.45000000 0.011070
0.35000000 -0.70000000 -0.40000000 0.011072
-0.40000000 -0.70000000 -0.45000000 0.011072
0.50000000 0.30000000 0.35000000 0.011075
-0.55000000 0.50000000 -0.45000000 0.011078
-0.30000000 0.15000000 -0.45000000 0.011078
-0.15000000 0.65000000 -0.70000000 0.011078
-0.35000000 -0.05000000 -0.40000000 0.011079
0.45000000 0.35000000 -0.50000000 0.011081
0.55000000 -0.50000000 0.35000000 0.011081
0.50000000 0.10000000 -0.65000000 0.011082
0.30000000 0.25000000 -0.80000000 0.011082
-0.50000000 -0.75000000 0.30000000 0.011084
-0.60000000 -0.40000000 -0.60000000 0.011084
0.25000000 -0.65000000 -0.45000000 0.011085
0.55000000 -0.15000000 -0.65000000 0.011085
0.35000000 -0.85000000 0.25000000 0.011085
-0.10000000 0.65000000 -0.70000000 0.011086
-0.30000000 0.35000000 0.35000000 0.011088
0.20000000 -0.65000000 0.25000000 0.011089
-0.10000000 -0.30000000 -0.40000000 0.011090
0.75000000 -0.40000000 -0.45000000 0.011091
0.75000000 -0.50000000 -0.40000000 0.011093
0.20000000 0.45000000 -0.70000000 0.011093
-0.45000000 -0.65000000 -0.60000000 0.011094
0.25000000 -0.55000000 0.25000000 0.011094
0.40000000 0.80000000 0.25000000 0.011095
0.30000000 0.35000000 0.35000000 0.011097
-0.65000000 -0.40000000 0.45000000 0.011098
0.25000000 -0.25000000 0.30000000 0.011100
0.40000000 0.00000000 0.35000000 0.011100
0.50000000 -0.45000000 0.35000000 0.011101
-0.35000000 0.40000000 -0.50000000 0.011101
-0.10000000 0.80000000 -0.45000000 0.011102
0.55000000 0.20000000 -0.45000000 0.011102
-0.15000000 0.70000000 -0.60000000 0.011103
0.05000000 -0.95000000 -0.40000000 0.011103
0.25000000 0.35000000 0.35000000 0.011104
0.05000000 0.15000000 0.40000000 0.011104
-0.50000000 -0.10000000 -0.45000000 0.011104
-0.15000000 -0.90000000 0.30000000 0.011104
0.45000000 0.50000000 0.35000000 0.011105
-0.15000000 0.50000000 0.35000000 0.011105
0.55000000 -0.15000000 0.50000000 0.011107
0.25000000 -0.80000000 -0.45000000 0.011108
-0.20000000 -0.05000000 0.25000000 0.011108
0.20000000 -0.45000000 0.25000000 0.011108
0.05000000 -0.55000000 0.25000000 0.011108
-0.45000000 -0.65000000 -0.55000000 0.011109
0.25000000 -0.30000000 -0.45000000 0.011109
0.60000000 0.30000000 0.35000000 0.011109
0.45000000 -0.40000000 0.35000000 0.011111
0.80000000 -0.20000000 -0.45000000 0.011112
0.35000000 0.50000000 -0.50000000 0.011112
-0.60000000 -0.20000000 0.40000000 0.011115
0.60000000 -0.05000000 -0.70000000 0.011118
0.10000000 0.15000000 -0.60000000 0.011119
-0.30000000 -0.05000000 -0.40000000 0.011119
-0.05000000 0.80000000 -0.45000000 0.011119
0.50000000 0.25000000 0.35000000 0.011120
-0.60000000 0.40000000 0.30000000 0.011120
0.35000000 0.30000000 -0.55000000 0.011121
-0.50000000 -0.60000000 -0.50000000 0.011121
0.45000000 0.65000000 0.35000000 0.011123
0.55000000 0.30000000 0.35000000 0.011125
0.20000000 -0.90000000 -0.40000000 0.011125
0.50000000 0.35000000 -0.50000000 0.011125
-0.05000000 -0.45000000 0.25000000 0.011129
-0.60000000 -0.70000000 0.30000000 0.011130
-0.45000000 0.60000000 0.35000000 0.011130
0.10000000 0.30000000 -0.70000000 0.011132
-0.25000000 -0.15000000 0.25000000 0.011132
0.50000000 0.20000000 0.40000000 0.011132
0.55000000 0.05000000 -0.65000000 0.011133
0.20000000 0.10000000 0.40000000 0.011134
0.00000000 0.45000000 0.35000000 0.011136
0.10000000 0.15000000 0.40000000 0.011137
-0.60000000 -0.45000000 0.30000000 0.011137
0.00000000 -0.70000000 -0.45000000 0.011141
-0.25000000 0.50000000 0.40000000 0.011142
-0.15000000 0.80000000 -0.45000000 0.011142
-0.15000000 0.55000000 0.35000000 0.011142
-0.55000000 -0.35000000 -0.55000000 0.011142
-0.15000000 -0.15000000 -0.40000000 0.011143
-0.05000000 0.70000000 -0.50000000 0.011144
0.20000000 0.70000000 0.35000000 0.011145
-0.70000000 0.40000000 0.30000000 0.011146
-0.30000000 0.00000000 -0.40000000 0.011147
0.35000000 0.60000000 0.35000000 0.011147
0.05000000 0.05000000 -0.50000000 0.011148
-0.25000000 -0.10000000 0.25000000 0.011148
0.75000000 -0.25000000 0.35000000 0.011149
0.45000000 0.10000000 -0.50000000 0.011149
-0.40000000 0.25000000 -0.45000000 0.011150
-0.05000000 0.65000000 -0.50000000 0.011151
0.40000000 -0.45000000 0.30000000 0.011152
-0.25000000 0.55000000 -0.65000000 0.011152
0.50000000 0.55000000 -0.45000000 0.011152
-0.55000000 0.75000000 -0.35000000 0.011152
0.75000000 -0.05000000 -0.50000000 0.011154
0.15000000 0.10000000 -0.60000000 0.011154
0.50000000 0.30000000 -0.45000000 0.011155
-0.05000000 0.75000000 -0.50000000 0.011156
-0.65000000 0.50000000 0.30000000 0.011156
-0.30000000 0.85000000 -0.35000000 0.011158
0.60000000 0.20000000 0.35000000 0.011158
0.70000000 -0.25000000 -0.60000000 0.011159
0.30000000 0.40000000 -0.55000000 0.011160
0.30000000 0.05000000 -0.65000000 0.011161
0.50000000 0.15000000 0.40000000 0.011161
0.50000000 0.35000000 -0.55000000 0.011163
-0.25000000 -0.55000000 -0.50000000 0.011164
-0.15000000 0.85000000 0.30000000 0.011164
0.30000000 -1.00000000 -0.25000000 0.011166
-0.10000000 0.35000000 0.35000000 0.011167
-0.35000000 0.00000000 0.25000000 0.011169
0.70000000 -0.25000000 0.35000000 0.011170
-0.95000000 0.15000000 0.30000000 0.011171
-0.65000000 0.40000000 0.30000000 0.011173
-0.60000000 -0.30000000 0.45000000 0.011174
-0.25000000 0.75000000 -0.50000000 0.011175
0.05000000 0.75000000 0.35000000 0.011176
-0.35000000 0.25000000 0.30000000 0.011177
-0.70000000 0.05000000 -0.45000000 0.011179
-0.25000000 -0.80000000 0.45000000 0.011182
0.30000000 0.60000000 -0.50000000 0.011182
-0.30000000 -0.75000000 -0.45000000 0.011184
-0.75000000 0.40000000 0.30000000 0.011184
-0.25000000 0.65000000 0.35000000 0.011184
-0.10000000 0.70000000 -0.50000000 0.011184
0.25000000 0.35000000 -0.55000000 0.011185
0.05000000 -0.05000000 -0.45000000 0.011185
0.10000000 0.05000000 -0.55000000 0.011186
0.45000000 0.50000000 -0.45000000 0.011186
-0.40000000 0.55000000 0.35000000 0.011186
0.55000000 -0.15000000 0.35000000 0.011186
