//X Y Z Consensus 
-0.70000000 0.15000000 -0.85000000 0.005539
-0.15000000 0.05000000 0.90000000 0.005543
-0.15000000 0.85000000 -0.60000000 0.005544
-0.70000000 0.75000000 0.20000000 0.005546
-0.10000000 0.45000000 0.80000000 0.005548
-0.45000000 0.30000000 -0.95000000 0.005549
-0.75000000 -0.75000000 0.30000000 0.005549
0.50000000 0.90000000 -0.20000000 0.005552
0.40000000 -0.60000000 0.65000000 0.005553
-0.40000000 -0.75000000 0.60000000 0.005556
-0.40000000 0.35000000 -0.95000000 0.005556
-0.20000000 1.00000000 -0.30000000 0.005559
0.30000000 -0.40000000 0.80000000 0.005559
-0.70000000 -0.40000000 0.65000000 0.005562
0.80000000 0.10000000 0.50000000 0.005562
0.15000000 -0.70000000 -0.85000000 0.005563
0.65000000 0.30000000 0.60000000 0.005565
-0.25000000 -1.00000000 -0.50000000 0.005565
0.70000000 -0.85000000 0.10000000 0.005565
-0.20000000 -0.30000000 0.85000000 0.005566
0.35000000 0.25000000 0.80000000 0.005568
0.85000000 -0.30000000 0.40000000 0.005568
0.55000000 0.70000000 0.35000000 0.005573
0.65000000 -0.75000000 -0.45000000 0.005574
-0.40000000 -0.10000000 0.85000000 0.005575
0.45000000 -0.80000000 -0.60000000 0.005576
0.65000000 0.20000000 0.65000000 0.005578
-0.05000000 0.45000000 0.80000000 0.005578
-0.05000000 -0.95000000 0.45000000 0.005579
0.10000000 0.25000000 0.85000000 0.005581
0.70000000 0.70000000 -0.30000000 0.005582
0.90000000 -0.40000000 0.25000000 0.005582
-0.25000000 -0.70000000 0.70000000 0.005583
0.70000000 0.75000000 0.10000000 0.005585
0.70000000 0.45000000 0.45000000 0.005588
-0.25000000 -0.45000000 0.80000000 0.005589
-0.40000000 0.55000000 0.65000000 0.005590
0.50000000 -1.00000000 0.10000000 0.005593
-0.10000000 0.05000000 0.90000000 0.005594
-0.50000000 0.40000000 0.70000000 0.005599
0.95000000 0.40000000 -0.20000000 0.005600
-0.35000000 -0.15000000 0.85000000 0.005602
-0.35000000 0.75000000 0.50000000 0.005604
-0.25000000 0.40000000 0.80000000 0.005605
0.70000000 0.20000000 -0.75000000 0.005607
0.15000000 -0.50000000 0.80000000 0.005609
0.55000000 -0.20000000 -0.90000000 0.005610
0.30000000 0.30000000 0.80000000 0.005611
-0.30000000 0.60000000 0.65000000 0.005616
0.75000000 0.70000000 0.10000000 0.005617
-0.05000000 0.85000000 0.45000000 0.005618
-0.15000000 0.25000000 0.85000000 0.005618
-0.20000000 -0.25000000 0.85000000 0.005621
-0.65000000 -0.60000000 0.55000000 0.005623
-0.25000000 -0.45000000 -1.00000000 0.005623
-0.50000000 -0.55000000 0.70000000 0.005623
-0.25000000 -0.60000000 0.75000000 0.005627
0.45000000 -0.40000000 -0.90000000 0.005631
-0.20000000 0.70000000 0.60000000 0.005631
0.10000000 0.55000000 -0.90000000 0.005632
0.30000000 0.60000000 0.65000000 0.005632
0.90000000 -0.60000000 0.10000000 0.005634
-0.90000000 0.10000000 0.50000000 0.005635
0.00000000 -0.70000000 0.70000000 0.005638
-0.80000000 -0.70000000 -0.45000000 0.005641
-0.60000000 0.10000000 0.75000000 0.005641
0.75000000 -0.80000000 0.10000000 0.005644
-0.95000000 0.40000000 0.25000000 0.005650
0.30000000 -0.45000000 -0.95000000 0.005651
0.30000000 0.45000000 0.75000000 0.005651
-0.25000000 -0.20000000 0.85000000 0.005652
-0.10000000 0.00000000 0.90000000 0.005652
-0.45000000 -0.90000000 -0.55000000 0.005654
-0.45000000 -0.25000000 0.80000000 0.005654
0.70000000 0.55000000 0.35000000 0.005655
0.15000000 -0.90000000 -0.65000000 0.005657
-0.90000000 -0.20000000 0.50000000 0.005660
-0.65000000 0.40000000 0.60000000 0.005660
-0.50000000 -0.15000000 0.80000000 0.005663
-0.35000000 0.80000000 0.45000000 0.005664
-0.20000000 0.25000000 0.85000000 0.005666
0.40000000 -0.25000000 0.80000000 0.005667
0.50000000 -1.00000000 -0.20000000 0.005668
0.20000000 -0.65000000 0.70000000 0.005669
-0.20000000 -1.00000000 0.35000000 0.005672
0.00000000 0.85000000 0.45000000 0.005673
0.50000000 0.55000000 0.55000000 0.005677
-0.40000000 0.40000000 0.75000000 0.005678
-0.95000000 -0.15000000 -0.60000000 0.005680
-0.20000000 -0.20000000 0.85000000 0.005681
0.30000000 -0.55000000 -0.90000000 0.005687
-0.15000000 0.00000000 0.90000000 0.005689
0.70000000 -0.55000000 -0.60000000 0.005690
0.65000000 -0.35000000 0.60000000 0.005694
-0.20000000 0.95000000 0.25000000 0.005698
-0.40000000 0.85000000 -0.50000000 0.005698
0.15000000 0.20000000 0.85000000 0.005704
-1.00000000 0.30000000 0.25000000 0.005707
0.35000000 -0.85000000 0.45000000 0.005709
-0.65000000 0.30000000 0.65000000 0.005713
0.30000000 -0.20000000 0.85000000 0.005713
-0.50000000 0.30000000 0.75000000 0.005714
-0.15000000 -0.35000000 0.85000000 0.005714
0.30000000 0.00000000 0.85000000 0.005714
-0.30000000 -0.80000000 -0.75000000 0.005714
-0.80000000 0.45000000 -0.60000000 0.005715
-0.45000000 0.70000000 0.50000000 0.005715
-0.15000000 -0.50000000 0.80000000 0.005715
0.15000000 0.60000000 0.70000000 0.005715
0.60000000 -0.10000000 0.70000000 0.005719
0.70000000 -0.40000000 -0.70000000 0.005719
-0.60000000 -0.25000000 0.75000000 0.005720
0.80000000 -0.55000000 0.30000000 0.005722
0.35000000 0.40000000 0.75000000 0.005723
0.25000000 -0.45000000 0.80000000 0.005725
0.10000000 -0.75000000 0.65000000 0.005729
-0.45000000 0.35000000 0.75000000 0.005729
-0.20000000 -0.60000000 0.75000000 0.005731
0.40000000 0.15000000 0.80000000 0.005731
-0.75000000 -0.85000000 -0.30000000 0.005734
0.25000000 0.10000000 0.85000000 0.005735
0.55000000 0.50000000 0.55000000 0.005735
-0.60000000 0.25000000 0.70000000 0.005735
0.35000000 -0.75000000 0.55000000 0.005737
0.45000000 -0.35000000 0.75000000 0.005738
0.15000000 1.00000000 0.15000000 0.005742
-0.70000000 -0.65000000 0.45000000 0.005744
-0.65000000 -0.70000000 0.45000000 0.005744
-0.95000000 0.45000000 0.20000000 0.005744
-0.90000000 -0.45000000 -0.55000000 0.005745
-0.85000000 0.40000000 0.40000000 0.005746
0.95000000 0.30000000 -0.30000000 0.005748
0.95000000 0.40000000 0.10000000 0.005749
-0.95000000 -0.40000000 -0.50000000 0.005749
-0.45000000 0.45000000 0.70000000 0.005753
0.75000000 -0.35000000 0.50000000 0.005754
0.05000000 0.85000000 -0.60000000 0.005758
-0.30000000 -0.40000000 0.80000000 0.005759
0.20000000 0.50000000 0.75000000 0.005760
-1.00000000 -0.35000000 -0.45000000 0.005761
0.40000000 0.95000000 -0.20000000 0.005761
0.10000000 -1.00000000 0.35000000 0.005762
-0.60000000 0.45000000 0.60000000 0.005762
0.75000000 -0.50000000 0.40000000 0.005764
0.75000000 0.70000000 -0.20000000 0.005764
-0.15000000 -0.25000000 0.85000000 0.005766
-0.25000000 0.25000000 0.85000000 0.005770
-0.40000000 0.00000000 0.85000000 0.005770
0.35000000 -0.40000000 -0.95000000 0.005770
0.60000000 0.30000000 -0.80000000 0.005774
0.85000000 0.20000000 -0.55000000 0.005777
-0.35000000 -1.00000000 -0.45000000 0.005780
0.55000000 -1.00000000 -0.10000000 0.005783
0.15000000 0.75000000 0.55000000 0.005785
-0.35000000 -0.35000000 0.80000000 0.005786
-0.15000000 -0.20000000 0.85000000 0.005787
-0.10000000 0.25000000 0.85000000 0.005788
-0.95000000 -0.70000000 0.05000000 0.005788
0.15000000 0.35000000 -1.00000000 0.005791
-0.90000000 0.15000000 -0.65000000 0.005793
-0.30000000 -0.15000000 0.85000000 0.005793
0.20000000 0.15000000 0.85000000 0.005793
-0.65000000 0.60000000 0.45000000 0.005795
0.30000000 -0.50000000 0.75000000 0.005797
-0.55000000 0.50000000 0.60000000 0.005799
0.70000000 0.75000000 -0.20000000 0.005806
-0.10000000 -0.35000000 0.85000000 0.005810
-0.65000000 -0.95000000 -0.25000000 0.005812
-0.50000000 0.75000000 0.40000000 0.005813
-0.80000000 0.30000000 -0.70000000 0.005813
-0.65000000 0.15000000 0.70000000 0.005821
0.85000000 0.60000000 -0.15000000 0.005828
0.30000000 0.95000000 -0.30000000 0.005829
-0.65000000 -0.90000000 -0.35000000 0.005834
-0.70000000 0.20000000 0.65000000 0.005839
0.05000000 0.25000000 0.85000000 0.005839
-0.40000000 -0.05000000 0.85000000 0.005842
0.40000000 0.35000000 0.75000000 0.005842
-0.25000000 0.35000000 -1.00000000 0.005843
0.15000000 -0.30000000 0.85000000 0.005843
-0.65000000 -0.65000000 0.50000000 0.005844
0.55000000 0.90000000 0.00000000 0.005845
0.25000000 -0.25000000 0.85000000 0.005846
-0.70000000 0.70000000 -0.45000000 0.005850
0.65000000 0.65000000 -0.45000000 0.005851
-0.70000000 0.55000000 0.45000000 0.005851
0.85000000 -0.70000000 -0.15000000 0.005852
0.70000000 0.60000000 0.30000000 0.005852
0.60000000 -0.25000000 -0.85000000 0.005854
-0.45000000 -0.40000000 -0.95000000 0.005854
0.80000000 0.40000000 -0.50000000 0.005855
-0.80000000 0.60000000 -0.45000000 0.005855
-0.15000000 -0.30000000 0.85000000 0.005855
0.90000000 0.30000000 -0.40000000 0.005856
0.65000000 -0.40000000 -0.75000000 0.005856
-0.95000000 -0.25000000 0.40000000 0.005857
-0.50000000 -0.70000000 -0.75000000 0.005858
-0.95000000 -0.35000000 0.35000000 0.005859
-0.70000000 -0.60000000 0.50000000 0.005861
-1.00000000 -0.25000000 -0.50000000 0.005863
0.35000000 0.30000000 -0.95000000 0.005868
-0.50000000 0.95000000 -0.20000000 0.005869
-0.85000000 -0.75000000 -0.30000000 0.005870
0.30000000 0.35000000 -0.95000000 0.005873
0.40000000 0.65000000 -0.70000000 0.005873
-0.35000000 -0.55000000 0.75000000 0.005879
-0.75000000 0.35000000 0.55000000 0.005880
0.20000000 0.65000000 -0.80000000 0.005881
-0.70000000 -0.20000000 0.70000000 0.005881
0.80000000 0.50000000 -0.40000000 0.005882
0.60000000 -0.85000000 0.20000000 0.005888
-0.60000000 0.90000000 -0.20000000 0.005893
-0.15000000 -0.60000000 0.75000000 0.005894
-0.25000000 -0.15000000 0.85000000 0.005894
0.90000000 0.10000000 -0.50000000 0.005895
-0.60000000 0.35000000 -0.85000000 0.005897
-0.70000000 -0.95000000 0.05000000 0.005900
-0.35000000 -0.10000000 0.85000000 0.005906
0.60000000 0.70000000 0.30000000 0.005907
0.65000000 -0.20000000 0.65000000 0.005907
0.10000000 1.00000000 -0.30000000 0.005911
-0.20000000 -0.15000000 0.85000000 0.005912
0.05000000 0.40000000 0.80000000 0.005913
0.60000000 0.15000000 0.70000000 0.005914
-0.20000000 -0.45000000 0.80000000 0.005915
-0.25000000 -0.80000000 0.60000000 0.005921
0.60000000 0.85000000 -0.15000000 0.005926
0.95000000 0.10000000 -0.40000000 0.005928
0.45000000 -0.55000000 0.65000000 0.005928
-0.05000000 0.25000000 0.85000000 0.005929
-0.55000000 -0.60000000 -0.80000000 0.005932
0.10000000 0.20000000 0.85000000 0.005933
-0.80000000 -0.25000000 0.60000000 0.005933
-0.15000000 0.65000000 0.65000000 0.005933
-0.45000000 1.00000000 -0.10000000 0.005933
-0.65000000 0.90000000 0.00000000 0.005935
-0.65000000 0.90000000 -0.10000000 0.005943
0.20000000 0.85000000 -0.55000000 0.005946
0.40000000 -0.95000000 0.25000000 0.005948
0.00000000 0.25000000 0.85000000 0.005948
-0.50000000 -0.10000000 0.80000000 0.005948
0.70000000 0.45000000 -0.60000000 0.005950
0.25000000 0.05000000 0.85000000 0.005953
0.50000000 -0.50000000 0.65000000 0.005953
-0.15000000 -0.95000000 -0.60000000 0.005953
-0.55000000 0.30000000 -0.90000000 0.005953
-0.10000000 -0.25000000 0.85000000 0.005955
0.70000000 -0.35000000 0.55000000 0.005958
0.90000000 0.55000000 0.00000000 0.005958
0.85000000 -0.60000000 -0.30000000 0.005958
-0.25000000 -0.95000000 0.40000000 0.005958
0.10000000 0.80000000 0.50000000 0.005961
-0.45000000 -0.25000000 -1.00000000 0.005963
0.05000000 0.90000000 0.35000000 0.005963
0.65000000 0.45000000 0.50000000 0.005966
-0.05000000 -0.35000000 0.85000000 0.005967
0.20000000 -0.25000000 0.85000000 0.005967
-0.30000000 -0.75000000 -0.80000000 0.005972
0.30000000 -0.95000000 -0.50000000 0.005976
0.10000000 -0.90000000 0.50000000 0.005981
-0.35000000 0.15000000 0.85000000 0.005982
0.60000000 -0.05000000 0.70000000 0.005982
-0.40000000 -0.95000000 -0.50000000 0.005984
-0.75000000 0.30000000 -0.75000000 0.005984
-0.45000000 0.95000000 -0.25000000 0.005985
0.10000000 -0.50000000 0.80000000 0.005987
0.20000000 0.10000000 0.85000000 0.005987
-0.30000000 0.45000000 0.75000000 0.005987
0.95000000 -0.50000000 0.10000000 0.005988
0.45000000 -0.50000000 -0.85000000 0.005989
-0.30000000 0.90000000 0.30000000 0.005991
-0.60000000 0.05000000 0.75000000 0.005992
-0.70000000 0.00000000 0.70000000 0.005993
0.10000000 0.60000000 0.70000000 0.005994
-0.10000000 -0.30000000 0.85000000 0.005995
0.15000000 0.15000000 0.85000000 0.005995
0.70000000 -0.65000000 -0.50000000 0.005995
-0.50000000 -0.05000000 0.80000000 0.005997
-0.50000000 0.10000000 0.80000000 0.006001
0.30000000 -0.05000000 0.85000000 0.006004
-0.40000000 0.70000000 -0.70000000 0.006005
-0.10000000 -0.50000000 0.80000000 0.006007
0.20000000 0.70000000 -0.75000000 0.006011
0.10000000 -0.60000000 0.75000000 0.006012
1.00000000 0.20000000 -0.25000000 0.006022
-0.40000000 -0.45000000 -0.95000000 0.006022
-0.30000000 0.85000000 0.40000000 0.006027
-0.95000000 -0.65000000 -0.25000000 0.006028
0.45000000 0.65000000 0.50000000 0.006029
-0.50000000 -0.75000000 -0.70000000 0.006029
-0.40000000 -0.30000000 0.80000000 0.006030
-0.10000000 -0.20000000 0.85000000 0.006033
0.20000000 0.35000000 0.80000000 0.006034
0.40000000 0.10000000 0.80000000 0.006034
-0.15000000 -0.15000000 0.85000000 0.006036
0.35000000 0.75000000 0.45000000 0.006037
0.10000000 -0.35000000 0.85000000 0.006040
-0.45000000 1.00000000 0.00000000 0.006040
0.45000000 0.30000000 -0.90000000 0.006041
-0.15000000 0.90000000 0.35000000 0.006043
0.80000000 -0.35000000 -0.60000000 0.006044
0.45000000 0.70000000 -0.60000000 0.006048
-0.40000000 0.65000000 -0.75000000 0.006049
0.50000000 0.35000000 -0.85000000 0.006049
0.35000000 -0.45000000 0.75000000 0.006050
0.30000000 -1.00000000 0.25000000 0.006052
-0.45000000 -0.20000000 0.80000000 0.006054
-0.35000000 -0.65000000 0.70000000 0.006054
0.05000000 -0.95000000 -0.60000000 0.006058
-0.55000000 0.70000000 -0.60000000 0.006059
-0.30000000 -0.10000000 0.85000000 0.006059
-0.25000000 -0.75000000 0.65000000 0.006060
-0.35000000 0.10000000 0.85000000 0.006060
-0.65000000 -1.00000000 0.00000000 0.006063
0.55000000 -0.55000000 -0.75000000 0.006066
0.50000000 -0.20000000 0.75000000 0.006068
0.40000000 0.60000000 -0.75000000 0.006069
-0.40000000 -0.55000000 -0.90000000 0.006070
0.55000000 0.05000000 -0.90000000 0.006073
0.05000000 0.20000000 0.85000000 0.006073
-0.60000000 -0.20000000 0.75000000 0.006074
0.80000000 -0.60000000 -0.40000000 0.006076
-0.75000000 -0.50000000 -0.70000000 0.006080
0.30000000 -0.15000000 0.85000000 0.006081
-0.80000000 0.35000000 0.50000000 0.006082
0.55000000 -0.80000000 -0.50000000 0.006082
0.20000000 0.05000000 0.85000000 0.006083
-1.00000000 -0.65000000 0.00000000 0.006083
-0.15000000 0.55000000 -0.90000000 0.006083
-0.15000000 -0.20000000 0.80000000 0.006087
-0.80000000 0.65000000 0.20000000 0.006087
0.35000000 -0.80000000 0.50000000 0.006089
0.20000000 0.90000000 0.30000000 0.006091
0.85000000 -0.10000000 -0.60000000 0.006092
-1.00000000 0.15000000 -0.50000000 0.006092
-0.40000000 0.60000000 0.60000000 0.006099
0.90000000 0.05000000 0.35000000 0.006100
0.55000000 0.65000000 0.40000000 0.006101
-0.85000000 -0.70000000 0.20000000 0.006101
0.40000000 -0.20000000 0.80000000 0.006104
0.30000000 0.90000000 -0.40000000 0.006105
-0.30000000 -0.35000000 0.80000000 0.006106
-0.20000000 0.50000000 0.75000000 0.006106
0.85000000 0.00000000 -0.60000000 0.006108
-0.30000000 0.20000000 0.85000000 0.006110
0.75000000 -0.70000000 0.20000000 0.006110
0.80000000 -0.50000000 -0.50000000 0.006113
-0.10000000 -0.60000000 0.75000000 0.006114
0.60000000 -0.95000000 -0.15000000 0.006115
-0.75000000 0.70000000 0.20000000 0.006115
0.90000000 -0.20000000 -0.50000000 0.006116
-0.95000000 0.60000000 0.05000000 0.006117
-0.75000000 -0.25000000 0.65000000 0.006117
-0.30000000 0.35000000 0.80000000 0.006118
-0.35000000 0.50000000 0.70000000 0.006120
0.15000000 0.10000000 0.85000000 0.006120
0.40000000 -0.55000000 -0.85000000 0.006122
-0.75000000 -0.75000000 -0.45000000 0.006122
-0.80000000 0.75000000 -0.20000000 0.006125
0.10000000 0.15000000 0.85000000 0.006125
-0.35000000 -0.85000000 0.50000000 0.006127
0.80000000 0.45000000 -0.45000000 0.006129
-0.60000000 0.35000000 0.65000000 0.006129
-0.95000000 -0.45000000 0.30000000 0.006129
-0.80000000 0.10000000 0.60000000 0.006131
0.15000000 -0.25000000 0.85000000 0.006132
0.45000000 -0.75000000 -0.65000000 0.006134
0.45000000 -0.65000000 -0.75000000 0.006134
-0.30000000 0.85000000 -0.55000000 0.006137
-0.05000000 -0.50000000 0.80000000 0.006138
-0.85000000 0.45000000 0.35000000 0.006139
0.15000000 0.00000000 0.85000000 0.006140
0.20000000 -0.55000000 0.75000000 0.006142
-0.15000000 0.20000000 0.85000000 0.006143
-0.40000000 -0.90000000 0.40000000 0.006144
-0.90000000 -0.55000000 0.30000000 0.006145
0.50000000 0.80000000 -0.40000000 0.006145
-0.30000000 1.00000000 -0.25000000 0.006148
0.15000000 0.05000000 0.85000000 0.006150
0.10000000 0.90000000 -0.50000000 0.006151
-0.35000000 0.05000000 0.85000000 0.006153
-0.45000000 0.85000000 0.30000000 0.006154
-0.25000000 -0.40000000 0.80000000 0.006155
0.35000000 1.00000000 0.00000000 0.006156
0.80000000 -0.20000000 0.50000000 0.006156
0.25000000 0.00000000 0.85000000 0.006156
0.30000000 -0.10000000 0.85000000 0.006160
0.50000000 -0.40000000 0.70000000 0.006162
-0.95000000 0.15000000 0.40000000 0.006163
0.00000000 0.20000000 0.85000000 0.006165
-0.60000000 0.00000000 0.75000000 0.006166
-0.60000000 -0.55000000 -0.80000000 0.006167
-0.40000000 0.45000000 -0.90000000 0.006167
-0.05000000 -0.70000000 0.70000000 0.006167
0.35000000 -0.55000000 0.70000000 0.006168
0.95000000 -0.20000000 -0.40000000 0.006168
0.70000000 -0.50000000 0.45000000 0.006168
-0.40000000 -0.80000000 -0.70000000 0.006169
0.20000000 0.00000000 0.85000000 0.006174
-0.45000000 0.50000000 -0.85000000 0.006176
0.65000000 0.55000000 0.40000000 0.006178
-0.85000000 0.25000000 0.50000000 0.006180
0.00000000 -0.35000000 0.85000000 0.006180
0.15000000 0.35000000 0.80000000 0.006180
0.60000000 0.00000000 0.70000000 0.006184
0.40000000 -0.90000000 -0.50000000 0.006187
0.05000000 0.60000000 0.70000000 0.006187
0.05000000 -0.65000000 -0.90000000 0.006187
0.80000000 0.25000000 -0.60000000 0.006190
-0.20000000 0.90000000 -0.50000000 0.006190
-0.15000000 -0.15000000 0.80000000 0.006191
-0.75000000 0.65000000 -0.45000000 0.006191
0.75000000 0.25000000 0.50000000 0.006193
0.70000000 -0.60000000 -0.55000000 0.006196
0.50000000 -0.80000000 -0.55000000 0.006196
-0.10000000 0.60000000 0.70000000 0.006197
-0.20000000 -0.20000000 0.80000000 0.006199
-0.15000000 -0.65000000 -0.90000000 0.006200
0.10000000 -0.55000000 -0.95000000 0.006200
-0.90000000 -0.65000000 -0.35000000 0.006202
-1.00000000 -0.15000000 0.35000000 0.006205
0.35000000 0.50000000 -0.85000000 0.006209
0.15000000 0.50000000 0.75000000 0.006209
-1.00000000 0.55000000 0.00000000 0.006210
0.10000000 0.10000000 0.85000000 0.006210
0.40000000 -0.40000000 0.75000000 0.006211
-0.50000000 0.00000000 0.80000000 0.006213
-0.45000000 -0.95000000 0.30000000 0.006213
0.90000000 -0.55000000 -0.25000000 0.006213
-0.80000000 0.25000000 0.55000000 0.006214
0.95000000 0.45000000 -0.10000000 0.006215
0.50000000 0.15000000 0.75000000 0.006217
-0.10000000 -0.15000000 0.75000000 0.006220
-0.95000000 -0.60000000 0.15000000 0.006221
-0.05000000 -0.60000000 0.75000000 0.006224
-0.10000000 -0.15000000 0.85000000 0.006225
0.05000000 0.15000000 0.85000000 0.006225
0.30000000 0.90000000 0.25000000 0.006226
0.95000000 -0.20000000 0.25000000 0.006227
-0.20000000 0.20000000 0.85000000 0.006231
-0.65000000 -0.35000000 0.70000000 0.006232
-0.85000000 -0.35000000 0.50000000 0.006233
-0.10000000 -0.15000000 0.80000000 0.006233
-0.50000000 0.60000000 0.55000000 0.006233
0.65000000 0.65000000 0.30000000 0.006234
-0.35000000 -0.05000000 0.85000000 0.006234
-0.35000000 0.80000000 -0.60000000 0.006235
-0.10000000 -0.20000000 0.80000000 0.006236
-0.10000000 0.85000000 -0.60000000 0.006236
-0.10000000 0.20000000 0.85000000 0.006237
-0.40000000 -0.50000000 0.75000000 0.006238
-0.70000000 -0.85000000 0.20000000 0.006241
0.40000000 -0.65000000 0.60000000 0.006243
-0.95000000 0.30000000 -0.50000000 0.006245
0.10000000 0.05000000 0.85000000 0.006246
0.90000000 -0.15000000 0.35000000 0.006249
-0.65000000 0.05000000 -0.90000000 0.006249
0.45000000 -0.70000000 -0.70000000 0.006249
-0.25000000 -0.10000000 0.85000000 0.006250
-0.75000000 0.05000000 0.65000000 0.006250
-0.65000000 -1.00000000 -0.10000000 0.006250
-0.25000000 0.55000000 0.70000000 0.006251
-0.85000000 0.70000000 -0.20000000 0.006254
0.20000000 -0.70000000 0.65000000 0.006254
0.10000000 0.00000000 0.85000000 0.006254
-0.55000000 -0.35000000 0.75000000 0.006257
-0.80000000 -0.45000000 0.50000000 0.006258
0.35000000 0.20000000 0.80000000 0.006263
0.65000000 0.60000000 0.35000000 0.006263
-0.65000000 -0.15000000 -0.90000000 0.006266
0.90000000 -0.65000000 0.00000000 0.006268
0.50000000 -0.90000000 -0.40000000 0.006272
-0.85000000 0.55000000 0.25000000 0.006272
-0.05000000 0.20000000 0.85000000 0.006272
0.50000000 0.20000000 -0.90000000 0.006273
0.60000000 0.65000000 0.35000000 0.006274
-0.05000000 -0.30000000 0.85000000 0.006275
0.25000000 0.30000000 0.80000000 0.006277
0.35000000 -0.50000000 -0.90000000 0.006278
-0.55000000 0.55000000 -0.75000000 0.006278
0.30000000 0.70000000 -0.70000000 0.006278
-0.15000000 -0.20000000 0.75000000 0.006280
1.00000000 0.35000000 0.00000000 0.006283
-0.20000000 -0.15000000 0.80000000 0.006284
-1.00000000 -0.65000000 -0.10000000 0.006290
0.05000000 -0.50000000 0.80000000 0.006290
0.40000000 -0.45000000 -0.90000000 0.006292
-0.15000000 -0.15000000 0.75000000 0.006292
-0.55000000 -0.40000000 -0.90000000 0.006293
0.55000000 -0.30000000 0.70000000 0.006294
0.15000000 0.60000000 -0.85000000 0.006295
0.00000000 -0.50000000 0.80000000 0.006297
0.15000000 -0.95000000 0.40000000 0.006299
-0.45000000 0.20000000 0.80000000 0.006300
-0.20000000 -0.10000000 0.85000000 0.006304
-0.35000000 -0.30000000 0.80000000 0.006304
-0.15000000 -0.25000000 0.80000000 0.006305
0.70000000 0.30000000 -0.70000000 0.006306
-0.05000000 -0.15000000 0.75000000 0.006307
-0.35000000 1.00000000 0.10000000 0.006307
0.85000000 -0.05000000 -0.60000000 0.006308
0.75000000 0.35000000 0.45000000 0.006308
-0.95000000 0.05000000 -0.60000000 0.006308
-0.35000000 0.00000000 0.85000000 0.006309
0.60000000 0.30000000 0.65000000 0.006310
-0.20000000 0.40000000 0.80000000 0.006314
0.10000000 -0.30000000 0.85000000 0.006315
-0.70000000 -0.05000000 0.70000000 0.006315
-0.55000000 0.40000000 0.65000000 0.006317
-0.60000000 -0.05000000 0.75000000 0.006320
-0.55000000 0.75000000 0.35000000 0.006320
-0.10000000 -0.10000000 0.75000000 0.006325
-1.00000000 0.25000000 -0.45000000 0.006326
0.40000000 0.05000000 0.80000000 0.006328
-0.15000000 -0.90000000 0.50000000 0.006329
-0.10000000 -0.10000000 0.80000000 0.006329
0.30000000 0.25000000 0.80000000 0.006329
-0.10000000 -0.10000000 0.85000000 0.006330
-0.20000000 -0.70000000 0.70000000 0.006330
-0.65000000 -0.45000000 0.65000000 0.006331
-0.35000000 0.30000000 0.80000000 0.006332
-0.70000000 -0.15000000 0.70000000 0.006334
-0.15000000 -0.10000000 0.85000000 0.006334
-0.10000000 -0.20000000 0.75000000 0.006334
0.05000000 -0.60000000 0.75000000 0.006335
0.10000000 0.35000000 0.80000000 0.006336
0.50000000 -0.95000000 -0.30000000 0.006337
-0.55000000 0.20000000 0.75000000 0.006344
-0.90000000 0.30000000 0.40000000 0.006344
-0.25000000 0.20000000 0.85000000 0.006345
-0.95000000 -0.10000000 -0.60000000 0.006346
-0.10000000 -0.25000000 0.80000000 0.006347
0.15000000 -0.05000000 0.85000000 0.006347
-0.65000000 0.45000000 -0.75000000 0.006348
0.35000000 0.95000000 -0.25000000 0.006349
0.95000000 0.35000000 -0.25000000 0.006350
-0.75000000 -0.30000000 -0.80000000 0.006350
0.25000000 -0.65000000 -0.85000000 0.006350
0.05000000 -0.35000000 0.85000000 0.006352
0.25000000 0.80000000 -0.60000000 0.006353
-0.90000000 0.05000000 0.50000000 0.006354
0.10000000 0.95000000 0.25000000 0.006355
0.10000000 0.95000000 -0.40000000 0.006355
0.25000000 -0.20000000 0.85000000 0.006358
0.05000000 0.10000000 0.85000000 0.006358
-0.55000000 -0.90000000 0.30000000 0.006359
0.85000000 -0.45000000 0.30000000 0.006359
0.25000000 -0.80000000 0.55000000 0.006360
-0.05000000 -0.10000000 0.75000000 0.006360
0.65000000 -0.85000000 0.15000000 0.006362
0.90000000 0.55000000 -0.05000000 0.006363
0.45000000 0.80000000 0.30000000 0.006363
0.00000000 -0.60000000 0.75000000 0.006363
0.70000000 -0.20000000 0.60000000 0.006364
0.55000000 0.70000000 -0.50000000 0.006364
0.30000000 0.60000000 -0.80000000 0.006367
0.45000000 0.25000000 0.75000000 0.006369
-0.05000000 -0.25000000 0.85000000 0.006369
0.90000000 -0.40000000 -0.40000000 0.006370
0.40000000 0.80000000 -0.50000000 0.006370
-0.70000000 -0.25000000 -0.85000000 0.006372
-0.85000000 -0.20000000 0.55000000 0.006373
0.00000000 0.40000000 0.80000000 0.006377
0.10000000 0.50000000 0.75000000 0.006378
0.70000000 0.55000000 -0.50000000 0.006378
1.00000000 0.15000000 0.15000000 0.006381
0.55000000 -0.50000000 0.60000000 0.006382
0.00000000 -0.10000000 0.85000000 0.006383
1.00000000 -0.15000000 -0.30000000 0.006387
0.40000000 -0.15000000 0.80000000 0.006388
-1.00000000 0.05000000 0.35000000 0.006390
-0.60000000 -0.15000000 0.75000000 0.006391
0.55000000 0.90000000 -0.05000000 0.006396
-0.40000000 -0.25000000 0.80000000 0.006398
0.60000000 -0.50000000 0.55000000 0.006403
0.35000000 0.50000000 0.70000000 0.006403
-0.50000000 -0.85000000 0.40000000 0.006403
0.10000000 -0.05000000 0.85000000 0.006404
-0.70000000 -0.50000000 -0.75000000 0.006404
0.00000000 0.15000000 0.85000000 0.006406
0.05000000 -0.75000000 0.65000000 0.006407
0.45000000 0.10000000 -0.95000000 0.006408
-0.30000000 -0.90000000 0.45000000 0.006409
-1.00000000 0.20000000 0.30000000 0.006410
-0.30000000 -0.05000000 0.85000000 0.006411
-0.15000000 -0.45000000 0.80000000 0.006411
-0.15000000 -0.10000000 0.80000000 0.006411
0.10000000 -0.25000000 0.85000000 0.006411
0.50000000 0.70000000 -0.55000000 0.006413
-0.50000000 0.05000000 0.80000000 0.006414
-0.25000000 -0.20000000 0.80000000 0.006414
-0.30000000 -0.30000000 0.80000000 0.006414
-0.05000000 -0.10000000 0.85000000 0.006415
-0.60000000 0.70000000 -0.55000000 0.006417
-0.40000000 0.20000000 -1.00000000 0.006418
-0.85000000 0.50000000 0.30000000 0.006418
0.20000000 -0.05000000 0.85000000 0.006420
-0.65000000 0.75000000 0.25000000 0.006426
-0.75000000 0.15000000 -0.80000000 0.006426
0.85000000 0.15000000 0.40000000 0.006429
-0.15000000 -0.10000000 0.75000000 0.006429
0.25000000 -0.05000000 0.85000000 0.006429
-0.80000000 -0.80000000 -0.30000000 0.006431
-0.60000000 -0.90000000 0.25000000 0.006433
0.80000000 0.10000000 -0.65000000 0.006434
0.35000000 -0.30000000 0.80000000 0.006435
-0.20000000 -0.55000000 -0.95000000 0.006436
-0.35000000 -0.95000000 0.35000000 0.006437
-0.25000000 -0.70000000 -0.85000000 0.006438
-0.20000000 -0.15000000 0.75000000 0.006440
-0.20000000 -0.20000000 0.75000000 0.006440
-0.30000000 0.65000000 0.60000000 0.006442
0.50000000 -0.15000000 0.75000000 0.006442
-0.70000000 -0.10000000 0.70000000 0.006443
0.40000000 -0.50000000 0.70000000 0.006444
-0.60000000 -0.10000000 0.75000000 0.006444
-0.05000000 -0.20000000 0.85000000 0.006445
0.80000000 -0.20000000 -0.65000000 0.006448
-0.90000000 -0.30000000 0.45000000 0.006456
-0.20000000 -0.85000000 0.55000000 0.006461
-0.30000000 -0.95000000 -0.55000000 0.006462
-0.20000000 -0.25000000 0.80000000 0.006462
0.80000000 -0.55000000 -0.45000000 0.006462
-0.05000000 -0.10000000 0.80000000 0.006463
-0.25000000 -0.15000000 0.80000000 0.006466
0.30000000 -0.35000000 0.80000000 0.006466
0.50000000 0.65000000 0.45000000 0.006466
0.00000000 -0.15000000 0.85000000 0.006468
-0.40000000 0.25000000 0.80000000 0.006474
-0.20000000 -0.40000000 0.80000000 0.006476
-0.25000000 -0.35000000 0.80000000 0.006478
-0.20000000 0.75000000 0.55000000 0.006478
-0.85000000 0.10000000 0.55000000 0.006479
0.65000000 -0.80000000 0.20000000 0.006480
1.00000000 -0.25000000 0.15000000 0.006480
0.00000000 0.60000000 0.70000000 0.006481
-0.60000000 -0.90000000 -0.40000000 0.006482
-0.25000000 0.60000000 0.65000000 0.006483
-0.05000000 -0.15000000 0.85000000 0.006486
-0.05000000 -0.05000000 0.85000000 0.006486
0.05000000 -0.10000000 0.85000000 0.006486
-0.90000000 -0.15000000 0.50000000 0.006489
0.20000000 -0.20000000 0.85000000 0.006489
-0.45000000 0.50000000 0.65000000 0.006489
0.60000000 0.10000000 0.70000000 0.006490
-0.65000000 0.70000000 -0.50000000 0.006491
0.20000000 -0.60000000 -0.90000000 0.006491
0.00000000 -0.05000000 0.85000000 0.006493
-0.05000000 -0.15000000 0.80000000 0.006495
0.10000000 -0.80000000 0.60000000 0.006496
0.80000000 0.05000000 0.50000000 0.006496
0.50000000 0.80000000 0.25000000 0.006499
0.55000000 -0.15000000 -0.90000000 0.006499
-0.05000000 -0.20000000 0.75000000 0.006501
0.60000000 0.05000000 0.70000000 0.006506
0.05000000 0.05000000 0.85000000 0.006506
0.20000000 1.00000000 -0.25000000 0.006508
0.00000000 -0.15000000 0.75000000 0.006509
0.90000000 -0.30000000 0.30000000 0.006511
1.00000000 -0.45000000 0.00000000 0.006512
0.55000000 -0.85000000 0.25000000 0.006512
-0.25000000 0.75000000 -0.70000000 0.006512
0.50000000 -0.60000000 -0.75000000 0.006513
0.00000000 -0.10000000 0.80000000 0.006515
-0.20000000 -0.10000000 0.80000000 0.006515
0.35000000 0.85000000 0.30000000 0.006517
0.45000000 -0.30000000 0.75000000 0.006519
0.30000000 -0.65000000 0.65000000 0.006521
-0.90000000 -0.60000000 0.25000000 0.006523
-0.80000000 -0.55000000 -0.60000000 0.006524
0.65000000 0.50000000 0.45000000 0.006525
-0.10000000 -0.05000000 0.75000000 0.006526
-0.05000000 -0.05000000 0.75000000 0.006527
0.00000000 -0.30000000 0.85000000 0.006528
-0.80000000 -0.85000000 -0.20000000 0.006529
0.65000000 -0.25000000 -0.80000000 0.006531
-0.30000000 0.15000000 0.85000000 0.006531
-0.20000000 0.80000000 0.50000000 0.006531
0.35000000 0.60000000 0.60000000 0.006532
-1.00000000 0.55000000 -0.10000000 0.006534
-0.10000000 -0.05000000 0.70000000 0.006534
0.10000000 -0.10000000 0.85000000 0.006537
-0.20000000 -0.10000000 0.75000000 0.006538
-0.15000000 -0.05000000 0.70000000 0.006540
0.45000000 -0.60000000 0.60000000 0.006545
-0.20000000 -0.05000000 0.70000000 0.006546
0.05000000 -0.15000000 0.85000000 0.006546
0.00000000 -0.10000000 0.75000000 0.006546
-0.70000000 0.85000000 0.05000000 0.006548
-0.60000000 0.20000000 -0.90000000 0.006549
-0.20000000 0.00000000 0.70000000 0.006549
-0.85000000 -0.80000000 -0.20000000 0.006550
-0.30000000 0.10000000 0.85000000 0.006553
0.15000000 -0.20000000 0.85000000 0.006553
0.10000000 -0.45000000 -1.00000000 0.006554
0.70000000 0.50000000 -0.55000000 0.006555
-0.15000000 -1.00000000 0.35000000 0.006556
-0.15000000 0.00000000 0.70000000 0.006556
-0.35000000 -0.90000000 -0.60000000 0.006557
0.05000000 0.00000000 0.85000000 0.006557
-0.35000000 0.40000000 0.75000000 0.006558
-0.05000000 0.00000000 0.85000000 0.006558
-0.15000000 0.50000000 0.75000000 0.006559
0.10000000 -0.20000000 0.85000000 0.006561
0.05000000 -0.05000000 0.85000000 0.006563
0.60000000 0.60000000 0.40000000 0.006567
0.00000000 0.10000000 0.85000000 0.006567
-0.30000000 0.05000000 0.85000000 0.006567
-0.45000000 -0.65000000 0.65000000 0.006568
0.40000000 -0.10000000 0.80000000 0.006569
0.00000000 0.90000000 0.35000000 0.006569
0.00000000 0.85000000 -0.60000000 0.006570
0.75000000 -0.25000000 -0.70000000 0.006572
0.65000000 -0.50000000 0.50000000 0.006573
-0.10000000 -0.05000000 0.85000000 0.006573
-0.30000000 0.00000000 0.85000000 0.006573
0.65000000 -0.55000000 -0.65000000 0.006574
-0.30000000 -0.20000000 0.80000000 0.006576
-0.60000000 -0.95000000 0.15000000 0.006576
0.45000000 -0.45000000 0.70000000 0.006576
-0.25000000 0.00000000 0.70000000 0.006577
0.25000000 -0.85000000 0.50000000 0.006579
-0.85000000 -0.55000000 0.35000000 0.006580
0.50000000 0.35000000 0.70000000 0.006583
0.50000000 -0.10000000 0.75000000 0.006584
-0.45000000 -0.15000000 0.80000000 0.006584
-0.10000000 0.00000000 0.70000000 0.006586
0.65000000 0.30000000 -0.75000000 0.006586
0.55000000 -0.40000000 0.65000000 0.006586
-0.25000000 -0.25000000 0.80000000 0.006588
0.00000000 0.00000000 0.85000000 0.006595
-0.05000000 -0.15000000 0.70000000 0.006596
-0.05000000 -0.05000000 0.70000000 0.006597
0.00000000 -0.20000000 0.85000000 0.006601
-0.75000000 -0.45000000 0.55000000 0.006602
0.85000000 0.35000000 -0.45000000 0.006603
-0.55000000 0.30000000 0.70000000 0.006607
-0.05000000 0.60000000 0.70000000 0.006609
0.40000000 0.75000000 0.40000000 0.006609
0.10000000 -0.15000000 0.85000000 0.006609
-0.75000000 0.45000000 -0.65000000 0.006609
-0.50000000 0.80000000 -0.50000000 0.006610
0.25000000 -0.40000000 0.80000000 0.006613
-0.30000000 -0.25000000 0.80000000 0.006614
-0.25000000 -0.10000000 0.80000000 0.006614
-0.10000000 -0.15000000 0.70000000 0.006615
0.10000000 -0.85000000 0.55000000 0.006615
0.00000000 -0.15000000 0.80000000 0.006616
-0.35000000 0.55000000 0.65000000 0.006616
-0.25000000 -0.30000000 0.80000000 0.006617
0.30000000 0.45000000 -0.90000000 0.006617
0.45000000 0.95000000 -0.10000000 0.006617
-0.10000000 -0.10000000 0.70000000 0.006617
-0.10000000 -0.05000000 0.80000000 0.006619
-0.05000000 -0.05000000 0.80000000 0.006620
-0.25000000 -0.15000000 0.75000000 0.006621
-0.05000000 -0.10000000 0.70000000 0.006622
0.20000000 0.30000000 0.80000000 0.006622
-0.10000000 -0.30000000 0.80000000 0.006623
-0.70000000 0.40000000 0.55000000 0.006623
-0.55000000 -0.20000000 -0.95000000 0.006624
-0.30000000 -0.15000000 0.80000000 0.006624
1.00000000 0.35000000 -0.05000000 0.006625
-0.05000000 0.40000000 0.80000000 0.006626
-0.60000000 -0.50000000 0.65000000 0.006626
0.40000000 -0.85000000 0.40000000 0.006627
-0.55000000 0.55000000 0.55000000 0.006627
0.40000000 0.00000000 0.80000000 0.006627
0.00000000 -0.20000000 0.75000000 0.006628
0.70000000 -0.75000000 0.20000000 0.006630
0.05000000 0.35000000 0.80000000 0.006631
-0.45000000 -0.45000000 0.75000000 0.006633
-0.50000000 -0.90000000 -0.50000000 0.006633
0.00000000 -0.05000000 0.75000000 0.006634
-0.25000000 0.65000000 -0.80000000 0.006635
-0.80000000 -0.30000000 -0.75000000 0.006636
-0.35000000 -0.25000000 0.80000000 0.006636
-0.15000000 -0.15000000 0.70000000 0.006636
-0.50000000 -0.40000000 0.75000000 0.006637
-0.15000000 -0.10000000 0.70000000 0.006637
-0.50000000 0.35000000 -0.90000000 0.006637
0.55000000 0.25000000 -0.85000000 0.006638
0.45000000 -0.95000000 0.20000000 0.006639
0.25000000 -0.10000000 0.85000000 0.006639
0.20000000 -0.45000000 0.80000000 0.006639
0.25000000 -0.15000000 0.85000000 0.006640
-0.15000000 -0.05000000 0.75000000 0.006640
-0.60000000 0.85000000 -0.30000000 0.006641
0.00000000 -0.25000000 0.85000000 0.006642
-0.30000000 -0.55000000 0.75000000 0.006644
0.25000000 -0.90000000 -0.60000000 0.006644
0.65000000 -0.15000000 0.65000000 0.006645
-0.95000000 -0.30000000 -0.55000000 0.006646
0.15000000 -0.65000000 0.70000000 0.006647
-0.40000000 -0.20000000 0.80000000 0.006647
-0.25000000 -0.05000000 0.70000000 0.006648
-0.05000000 -0.20000000 0.80000000 0.006649
-0.80000000 0.50000000 -0.55000000 0.006649
0.00000000 -0.05000000 0.80000000 0.006649
-0.15000000 -0.25000000 0.75000000 0.006649
-0.25000000 0.05000000 0.70000000 0.006651
-0.45000000 -0.80000000 0.50000000 0.006653
-0.05000000 0.15000000 0.85000000 0.006655
0.05000000 -0.10000000 0.80000000 0.006655
-0.25000000 -0.10000000 0.75000000 0.006655
-0.30000000 -0.40000000 -1.00000000 0.006659
0.55000000 -0.35000000 -0.85000000 0.006659
0.15000000 -0.10000000 0.85000000 0.006661
1.00000000 0.05000000 -0.30000000 0.006662
0.35000000 0.15000000 0.80000000 0.006663
-0.30000000 -0.10000000 0.80000000 0.006665
0.00000000 0.05000000 0.85000000 0.006665
-0.90000000 -0.35000000 -0.60000000 0.006665
-0.95000000 0.25000000 0.35000000 0.006666
0.05000000 0.50000000 0.75000000 0.006669
-0.05000000 0.85000000 -0.60000000 0.006669
-0.20000000 0.95000000 -0.40000000 0.006670
0.05000000 -1.00000000 0.35000000 0.006672
-0.10000000 0.00000000 0.85000000 0.006673
-0.10000000 -0.25000000 0.75000000 0.006673
-0.55000000 0.10000000 -0.95000000 0.006674
0.10000000 0.45000000 -0.95000000 0.006674
0.55000000 0.45000000 -0.75000000 0.006676
-0.45000000 0.90000000 0.20000000 0.006677
-0.10000000 -0.70000000 0.70000000 0.006680
-0.10000000 0.90000000 0.35000000 0.006682
0.05000000 -0.30000000 0.85000000 0.006683
-0.20000000 0.05000000 0.70000000 0.006685
-0.15000000 -0.30000000 0.80000000 0.006685
-0.20000000 -0.10000000 0.70000000 0.006687
0.60000000 -0.55000000 -0.70000000 0.006687
-0.90000000 -0.50000000 -0.50000000 0.006688
0.05000000 -0.20000000 0.85000000 0.006689
-0.40000000 -0.75000000 -0.75000000 0.006689
-0.55000000 -0.90000000 -0.45000000 0.006691
0.50000000 0.10000000 0.75000000 0.006691
-0.40000000 -0.70000000 -0.80000000 0.006692
-0.20000000 0.45000000 -0.95000000 0.006697
-0.25000000 -0.05000000 0.85000000 0.006697
0.00000000 -0.95000000 -0.60000000 0.006697
0.25000000 0.25000000 0.80000000 0.006698
-0.25000000 -0.20000000 0.75000000 0.006698
-0.65000000 0.10000000 0.70000000 0.006702
-0.60000000 0.20000000 0.70000000 0.006703
0.75000000 -0.75000000 0.15000000 0.006703
0.25000000 -0.95000000 0.35000000 0.006707
-0.15000000 -0.70000000 0.70000000 0.006708
0.95000000 -0.55000000 -0.10000000 0.006709
0.40000000 -0.70000000 0.55000000 0.006710
-0.15000000 0.70000000 0.60000000 0.006710
-0.10000000 0.00000000 0.75000000 0.006712
0.20000000 -0.10000000 0.85000000 0.006713
-0.95000000 0.20000000 -0.55000000 0.006713
-0.50000000 0.45000000 0.65000000 0.006713
-0.80000000 -0.40000000 -0.70000000 0.006715
0.45000000 -0.90000000 -0.45000000 0.006715
0.05000000 -0.05000000 0.80000000 0.006716
-0.20000000 -0.15000000 0.70000000 0.006717
0.25000000 -0.60000000 0.70000000 0.006717
0.75000000 -0.20000000 0.55000000 0.006720
-0.20000000 -0.05000000 0.75000000 0.006721
0.95000000 -0.30000000 -0.35000000 0.006725
-0.05000000 0.00000000 0.80000000 0.006726
-0.05000000 -0.25000000 0.80000000 0.006727
-0.15000000 0.40000000 0.80000000 0.006731
-0.35000000 -0.20000000 0.80000000 0.006731
0.70000000 0.25000000 0.55000000 0.006731
-0.30000000 -0.10000000 0.75000000 0.006732
-0.05000000 0.05000000 0.85000000 0.006732
0.05000000 -0.25000000 0.85000000 0.006735
-0.20000000 -0.30000000 0.80000000 0.006736
-0.45000000 0.15000000 0.80000000 0.006737
0.90000000 0.30000000 0.25000000 0.006737
0.65000000 0.15000000 -0.80000000 0.006738
0.25000000 0.45000000 0.75000000 0.006741
-0.15000000 -0.05000000 0.85000000 0.006744
0.10000000 -0.05000000 0.80000000 0.006744
-0.10000000 0.15000000 0.85000000 0.006744
-0.15000000 -0.20000000 0.70000000 0.006746
0.35000000 0.85000000 -0.45000000 0.006747
-1.00000000 0.50000000 -0.20000000 0.006747
-0.15000000 0.05000000 0.70000000 0.006748
0.40000000 -0.05000000 0.80000000 0.006748
-0.05000000 0.00000000 0.75000000 0.006748
0.55000000 -1.00000000 0.00000000 0.006751
-0.65000000 0.25000000 -0.85000000 0.006751
-0.10000000 -0.45000000 0.80000000 0.006751
-0.15000000 0.15000000 0.85000000 0.006751
0.15000000 -0.85000000 -0.70000000 0.006752
0.00000000 -0.65000000 -0.90000000 0.006753
0.60000000 0.50000000 0.50000000 0.006753
0.75000000 -0.65000000 0.25000000 0.006753
-0.05000000 -0.20000000 0.70000000 0.006756
-0.45000000 0.40000000 -0.90000000 0.006757
-0.10000000 -0.95000000 -0.60000000 0.006758
-0.60000000 -1.00000000 -0.20000000 0.006759
-0.80000000 -0.50000000 0.45000000 0.006763
-0.75000000 0.20000000 0.60000000 0.006765
-0.25000000 0.15000000 0.85000000 0.006765
0.05000000 0.55000000 -0.90000000 0.006766
-0.05000000 0.10000000 0.85000000 0.006767
0.25000000 0.75000000 0.50000000 0.006767
0.30000000 0.80000000 0.40000000 0.006768
0.20000000 -0.15000000 0.85000000 0.006770
0.15000000 0.30000000 0.80000000 0.006773
0.80000000 0.50000000 0.25000000 0.006777
0.15000000 -0.15000000 0.85000000 0.006779
0.55000000 0.00000000 -0.90000000 0.006779
0.45000000 0.80000000 -0.45000000 0.006779
-0.20000000 -0.05000000 0.85000000 0.006780
-0.20000000 -0.35000000 0.80000000 0.006780
-0.25000000 -0.05000000 0.75000000 0.006780
0.00000000 -0.20000000 0.70000000 0.006781
-0.30000000 -0.05000000 0.75000000 0.006782
-0.20000000 -0.20000000 0.70000000 0.006783
-0.30000000 0.50000000 -0.90000000 0.006785
-0.10000000 0.00000000 0.80000000 0.006787
-0.60000000 0.80000000 -0.40000000 0.006788
0.85000000 -0.50000000 0.25000000 0.006788
-0.10000000 -0.20000000 0.70000000 0.006789
0.75000000 0.15000000 -0.70000000 0.006791
0.30000000 0.20000000 0.80000000 0.006791
-0.55000000 -0.30000000 0.75000000 0.006792
0.50000000 0.60000000 0.50000000 0.006793
0.80000000 0.30000000 0.40000000 0.006794
-0.10000000 -0.65000000 -0.90000000 0.006794
-0.30000000 -0.15000000 0.75000000 0.006794
0.00000000 -0.15000000 0.70000000 0.006795
-0.65000000 -0.10000000 -0.90000000 0.006796
0.65000000 -0.70000000 -0.50000000 0.006796
-0.20000000 0.15000000 0.85000000 0.006798
0.40000000 0.45000000 0.70000000 0.006798
0.05000000 0.80000000 0.50000000 0.006799
0.70000000 0.15000000 0.60000000 0.006801
0.90000000 0.00000000 0.35000000 0.006802
-0.10000000 0.40000000 0.80000000 0.006802
-0.90000000 0.25000000 -0.60000000 0.006804
0.35000000 0.10000000 -1.00000000 0.006805
0.25000000 1.00000000 0.10000000 0.006808
-0.15000000 -0.05000000 0.80000000 0.006810
-0.70000000 0.15000000 0.65000000 0.006810
-0.95000000 0.50000000 0.15000000 0.006811
0.90000000 -0.65000000 -0.05000000 0.006812
0.35000000 0.65000000 0.55000000 0.006812
0.00000000 -0.05000000 0.70000000 0.006815
-0.55000000 -0.95000000 0.20000000 0.006816
-0.15000000 -0.40000000 0.80000000 0.006816
0.30000000 -0.30000000 -1.00000000 0.006817
0.50000000 0.05000000 0.75000000 0.006817
0.85000000 0.35000000 0.30000000 0.006817
-0.60000000 0.75000000 0.30000000 0.006817
0.00000000 0.00000000 0.80000000 0.006817
-0.35000000 -0.35000000 -1.00000000 0.006818
-0.65000000 0.25000000 0.65000000 0.006818
-0.05000000 0.00000000 0.70000000 0.006818
0.10000000 -0.10000000 0.80000000 0.006819
-0.40000000 -0.30000000 -1.00000000 0.006821
-0.95000000 -0.05000000 -0.60000000 0.006822
0.15000000 -0.55000000 0.75000000 0.006822
0.75000000 -0.55000000 0.35000000 0.006824
-0.50000000 0.85000000 0.25000000 0.006826
-0.40000000 0.90000000 -0.40000000 0.006827
0.15000000 -0.75000000 -0.80000000 0.006829
-0.20000000 -0.90000000 -0.65000000 0.006831
0.50000000 -0.55000000 0.60000000 0.006832
0.05000000 -0.15000000 0.80000000 0.006832
0.25000000 0.85000000 0.35000000 0.006832
-0.20000000 -0.55000000 0.75000000 0.006836
-0.10000000 0.05000000 0.85000000 0.006837
-0.05000000 0.90000000 0.35000000 0.006837
-0.05000000 -0.25000000 0.75000000 0.006839
0.10000000 0.00000000 0.80000000 0.006841
-0.10000000 0.55000000 -0.90000000 0.006842
-0.65000000 -0.80000000 -0.50000000 0.006846
-0.90000000 -0.45000000 0.35000000 0.006846
-0.20000000 -0.25000000 0.75000000 0.006847
0.35000000 0.10000000 0.80000000 0.006847
-0.15000000 0.00000000 0.75000000 0.006847
-0.55000000 0.40000000 -0.85000000 0.006847
0.50000000 -0.30000000 -0.90000000 0.006848
-0.05000000 -0.30000000 0.80000000 0.006848
-0.65000000 0.45000000 0.55000000 0.006848
-0.45000000 0.55000000 0.60000000 0.006849
-0.20000000 0.00000000 0.65000000 0.006849
0.65000000 0.75000000 0.15000000 0.006850
-0.90000000 0.00000000 0.50000000 0.006852
-0.25000000 -0.10000000 0.70000000 0.006854
-0.25000000 -0.55000000 0.75000000 0.006856
-0.30000000 0.00000000 0.70000000 0.006856
-0.45000000 -0.05000000 0.80000000 0.006857
0.60000000 -0.30000000 0.65000000 0.006858
0.75000000 0.65000000 0.15000000 0.006860
0.65000000 0.35000000 0.55000000 0.006861
-0.90000000 0.40000000 -0.50000000 0.006861
0.90000000 -0.10000000 0.35000000 0.006865
-0.15000000 0.00000000 0.65000000 0.006866
-0.85000000 0.15000000 -0.70000000 0.006867
0.05000000 0.00000000 0.80000000 0.006867
-0.30000000 -0.05000000 0.80000000 0.006870
-0.80000000 0.55000000 -0.50000000 0.006873
-0.35000000 -0.50000000 0.75000000 0.006873
-0.10000000 0.10000000 0.85000000 0.006873
-1.00000000 -0.60000000 -0.20000000 0.006875
0.25000000 -0.50000000 0.75000000 0.006876
0.10000000 0.80000000 -0.65000000 0.006876
-0.95000000 0.00000000 -0.60000000 0.006877
0.30000000 -0.90000000 0.40000000 0.006877
-0.45000000 -0.10000000 0.80000000 0.006878
0.00000000 -0.20000000 0.80000000 0.006880
0.00000000 -0.10000000 0.70000000 0.006880
0.00000000 0.00000000 0.75000000 0.006881
-0.45000000 0.00000000 0.80000000 0.006882
0.35000000 1.00000000 -0.05000000 0.006883
-0.55000000 -0.80000000 -0.60000000 0.006884
-0.25000000 0.10000000 0.85000000 0.006887
-0.90000000 0.50000000 -0.40000000 0.006888
-0.35000000 -0.15000000 0.80000000 0.006889
-0.25000000 0.35000000 0.80000000 0.006890
-0.15000000 -0.05000000 0.65000000 0.006890
-0.10000000 0.05000000 0.70000000 0.006891
-0.15000000 0.00000000 0.85000000 0.006893
-0.05000000 -0.45000000 0.80000000 0.006893
0.45000000 -0.20000000 -0.95000000 0.006896
0.90000000 0.20000000 0.30000000 0.006896
0.50000000 -0.05000000 0.75000000 0.006897
-0.25000000 0.45000000 0.75000000 0.006898
0.60000000 -0.40000000 0.60000000 0.006898
-0.30000000 -0.05000000 0.70000000 0.006899
-0.90000000 -0.55000000 -0.45000000 0.006900
-0.55000000 -0.55000000 0.65000000 0.006902
-0.35000000 0.55000000 -0.85000000 0.006903
-0.70000000 0.45000000 -0.70000000 0.006903
0.30000000 -0.70000000 0.60000000 0.006903
0.05000000 -0.90000000 0.50000000 0.006903
0.45000000 0.40000000 -0.85000000 0.006904
-0.40000000 0.35000000 0.75000000 0.006905
-0.25000000 0.10000000 0.70000000 0.006905
-0.95000000 -0.45000000 -0.45000000 0.006907
-0.70000000 0.30000000 0.60000000 0.006910
-0.95000000 -0.55000000 0.20000000 0.006910
-0.30000000 0.00000000 0.75000000 0.006913
-0.20000000 0.00000000 0.75000000 0.006913
0.30000000 0.65000000 -0.75000000 0.006914
-0.80000000 0.15000000 -0.75000000 0.006914
-0.25000000 0.00000000 0.85000000 0.006916
-0.20000000 -0.75000000 0.65000000 0.006917
-0.10000000 -0.05000000 0.65000000 0.006917
0.50000000 0.00000000 0.75000000 0.006917
-0.45000000 0.10000000 0.80000000 0.006920
0.80000000 0.45000000 0.30000000 0.006920
-0.25000000 0.00000000 0.75000000 0.006922
-0.55000000 0.15000000 0.75000000 0.006923
0.55000000 0.25000000 0.70000000 0.006924
-0.25000000 -0.40000000 0.75000000 0.006924
-0.20000000 -0.05000000 0.65000000 0.006927
-0.20000000 -0.05000000 0.80000000 0.006928
-0.10000000 0.00000000 0.65000000 0.006929
0.15000000 -0.45000000 0.80000000 0.006929
-0.10000000 0.65000000 0.65000000 0.006930
-0.60000000 0.50000000 0.55000000 0.006931
0.05000000 -0.15000000 0.75000000 0.006931
-1.00000000 -0.10000000 0.35000000 0.006931
0.10000000 -1.00000000 -0.50000000 0.006931
-0.70000000 -0.45000000 0.60000000 0.006932
-0.10000000 -0.35000000 0.80000000 0.006934
-0.80000000 -0.20000000 0.60000000 0.006934
-0.75000000 -0.80000000 0.20000000 0.006934
-0.35000000 -0.05000000 0.75000000 0.006935
-0.50000000 -0.60000000 0.65000000 0.006936
-0.15000000 -0.35000000 0.80000000 0.006937
0.20000000 0.25000000 0.80000000 0.006939
0.60000000 0.10000000 -0.85000000 0.006940
0.00000000 -0.25000000 0.75000000 0.006941
-0.80000000 0.05000000 0.60000000 0.006942
-0.55000000 0.65000000 -0.65000000 0.006943
0.05000000 -0.20000000 0.75000000 0.006943
0.35000000 -0.25000000 0.80000000 0.006944
0.30000000 0.40000000 0.75000000 0.006944
-0.20000000 -0.80000000 0.60000000 0.006944
-0.30000000 -0.60000000 -0.90000000 0.006944
0.75000000 -0.70000000 -0.35000000 0.006946
-0.25000000 -0.15000000 0.70000000 0.006947
0.40000000 0.35000000 -0.90000000 0.006947
-0.55000000 0.90000000 -0.25000000 0.006948
-0.20000000 0.05000000 0.65000000 0.006949
0.10000000 0.30000000 0.80000000 0.006949
-0.35000000 -0.10000000 0.80000000 0.006950
-0.60000000 0.50000000 -0.75000000 0.006950
-0.65000000 0.00000000 -0.90000000 0.006951
-0.25000000 -0.35000000 0.75000000 0.006953
0.15000000 0.75000000 -0.70000000 0.006954
-0.15000000 -0.55000000 0.75000000 0.006954
-0.50000000 0.25000000 0.75000000 0.006955
-0.20000000 0.55000000 0.70000000 0.006955
-0.30000000 -0.20000000 0.75000000 0.006956
0.05000000 -0.05000000 0.75000000 0.006956
-0.30000000 -0.35000000 0.75000000 0.006957
-0.20000000 0.80000000 -0.65000000 0.006958
0.70000000 -0.55000000 0.40000000 0.006959
0.05000000 -0.10000000 0.75000000 0.006960
0.90000000 -0.50000000 -0.30000000 0.006961
-0.25000000 -0.05000000 0.80000000 0.006962
0.35000000 -0.20000000 -1.00000000 0.006965
-0.80000000 -0.75000000 0.20000000 0.006966
-0.30000000 -0.40000000 0.75000000 0.006968
-0.05000000 0.05000000 0.80000000 0.006968
