//X Y Z Consensus 
0.40000000 -0.45000000 -0.90000000 0.119901
-0.50000000 0.30000000 -0.95000000 0.119905
1.00000000 0.75000000 -0.10000000 0.119909
-0.40000000 0.60000000 -0.75000000 0.119922
0.40000000 0.50000000 0.55000000 0.119923
0.55000000 0.60000000 0.50000000 0.119939
0.35000000 -0.70000000 -0.75000000 0.119951
-0.60000000 -0.75000000 -0.65000000 0.119962
-0.15000000 -0.65000000 0.55000000 0.119970
0.40000000 -0.40000000 -0.95000000 0.119976
0.70000000 -0.95000000 -0.40000000 0.119978
-0.95000000 0.50000000 -0.55000000 0.119994
-0.70000000 -0.20000000 0.55000000 0.120005
0.75000000 -0.95000000 -0.35000000 0.120019
-0.20000000 0.90000000 0.50000000 0.120034
0.35000000 0.50000000 -0.80000000 0.120039
0.90000000 0.75000000 0.20000000 0.120048
0.60000000 0.40000000 -0.70000000 0.120052
0.55000000 0.85000000 0.40000000 0.120055
-0.65000000 -0.70000000 -0.65000000 0.120079
0.75000000 0.85000000 0.25000000 0.120080
-0.80000000 0.45000000 0.50000000 0.120094
-0.80000000 -0.05000000 0.55000000 0.120110
0.10000000 0.65000000 0.55000000 0.120111
-0.90000000 0.90000000 -0.20000000 0.120124
0.70000000 0.85000000 0.30000000 0.120124
-0.40000000 -0.75000000 -0.75000000 0.120127
0.50000000 0.35000000 -0.80000000 0.120128
-0.85000000 1.00000000 0.15000000 0.120133
0.95000000 -0.85000000 -0.20000000 0.120142
-0.15000000 0.65000000 0.55000000 0.120146
-0.35000000 0.95000000 -0.55000000 0.120155
0.35000000 0.70000000 -0.65000000 0.120177
0.80000000 -0.40000000 0.50000000 0.120180
-0.05000000 0.50000000 -1.00000000 0.120185
-0.10000000 0.95000000 0.50000000 0.120188
-0.90000000 -0.45000000 -0.65000000 0.120189
0.95000000 -0.80000000 0.25000000 0.120202
-0.65000000 -0.20000000 -0.90000000 0.120231
0.85000000 -0.85000000 -0.30000000 0.120231
-0.50000000 -0.85000000 -0.65000000 0.120232
0.75000000 0.90000000 -0.20000000 0.120233
0.85000000 -0.75000000 0.35000000 0.120234
-0.20000000 -0.60000000 0.55000000 0.120250
0.75000000 1.00000000 -0.10000000 0.120267
-0.50000000 0.40000000 -0.85000000 0.120276
-0.95000000 -0.25000000 -0.70000000 0.120284
0.70000000 0.70000000 0.40000000 0.120285
-0.80000000 0.00000000 0.55000000 0.120286
0.60000000 0.55000000 0.50000000 0.120331
0.90000000 0.60000000 0.35000000 0.120334
0.55000000 1.00000000 0.35000000 0.120345
0.20000000 -0.55000000 -1.00000000 0.120348
-0.70000000 -0.35000000 -0.80000000 0.120354
0.55000000 -0.70000000 0.50000000 0.120358
0.15000000 0.55000000 -0.85000000 0.120364
-0.70000000 0.20000000 0.55000000 0.120369
-0.40000000 0.90000000 -0.55000000 0.120369
0.55000000 0.15000000 -0.85000000 0.120399
0.35000000 -0.50000000 -0.90000000 0.120409
-0.85000000 0.75000000 0.35000000 0.120420
0.65000000 -0.55000000 -0.65000000 0.120428
-0.75000000 0.55000000 -0.60000000 0.120429
1.00000000 -0.55000000 -0.45000000 0.120430
-0.85000000 -0.15000000 -0.75000000 0.120432
0.30000000 -0.60000000 0.55000000 0.120434
-0.60000000 -0.20000000 -1.00000000 0.120447
-0.75000000 0.25000000 -0.75000000 0.120454
-0.55000000 -0.75000000 0.50000000 0.120463
-1.00000000 0.75000000 0.30000000 0.120464
-0.80000000 -0.80000000 -0.50000000 0.120468
-0.75000000 -0.50000000 -0.70000000 0.120489
-0.45000000 -0.40000000 0.55000000 0.120496
-0.05000000 -0.70000000 0.55000000 0.120497
0.75000000 0.05000000 -0.70000000 0.120504
0.85000000 0.75000000 0.25000000 0.120508
0.70000000 -0.70000000 0.45000000 0.120536
0.20000000 0.85000000 0.50000000 0.120539
0.75000000 0.65000000 0.40000000 0.120545
-0.25000000 -0.55000000 0.55000000 0.120550
0.85000000 0.85000000 -0.05000000 0.120553
-0.25000000 -0.75000000 -0.80000000 0.120556
0.70000000 -0.75000000 -0.50000000 0.120571
0.10000000 -0.70000000 0.55000000 0.120577
0.50000000 0.40000000 0.55000000 0.120583
-0.60000000 0.60000000 -0.65000000 0.120659
0.80000000 -0.85000000 -0.35000000 0.120669
-0.20000000 -0.85000000 -0.75000000 0.120675
0.30000000 0.80000000 -0.60000000 0.120701
-0.90000000 1.00000000 -0.05000000 0.120703
0.00000000 0.95000000 0.50000000 0.120705
0.45000000 0.45000000 0.55000000 0.120707
0.35000000 0.85000000 -0.55000000 0.120708
-0.85000000 0.75000000 -0.40000000 0.120712
0.75000000 1.00000000 0.10000000 0.120725
0.70000000 0.35000000 -0.65000000 0.120749
-0.95000000 0.85000000 0.20000000 0.120776
-0.45000000 0.35000000 -0.95000000 0.120780
-0.65000000 0.05000000 -0.90000000 0.120786
0.45000000 0.20000000 -0.95000000 0.120807
-0.35000000 0.80000000 0.50000000 0.120807
0.10000000 0.90000000 -0.60000000 0.120818
-0.80000000 0.60000000 0.45000000 0.120818
-0.60000000 -0.50000000 -0.80000000 0.120819
-0.95000000 0.70000000 0.35000000 0.120859
0.15000000 0.60000000 -0.80000000 0.120861
-0.80000000 0.90000000 -0.30000000 0.120868
0.40000000 -1.00000000 -0.60000000 0.120879
0.80000000 0.60000000 0.40000000 0.120897
0.20000000 -0.65000000 0.55000000 0.120900
-0.20000000 -0.60000000 -1.00000000 0.120900
0.85000000 0.70000000 0.30000000 0.120901
0.30000000 -0.50000000 -0.95000000 0.120907
0.85000000 0.35000000 -0.55000000 0.120910
0.85000000 -0.65000000 -0.45000000 0.120917
-0.85000000 0.55000000 -0.55000000 0.120931
0.80000000 0.80000000 -0.25000000 0.120950
-0.30000000 -0.50000000 0.55000000 0.120953
0.95000000 -0.35000000 -0.55000000 0.120957
0.45000000 -0.45000000 -0.85000000 0.120961
-1.00000000 -0.60000000 0.45000000 0.120981
0.00000000 -0.70000000 0.55000000 0.120997
-0.60000000 -0.25000000 -0.95000000 0.121007
-0.25000000 0.55000000 -0.85000000 0.121010
0.75000000 0.70000000 -0.40000000 0.121014
0.75000000 -0.60000000 -0.55000000 0.121024
0.85000000 0.85000000 0.05000000 0.121028
0.00000000 0.75000000 -0.70000000 0.121029
1.00000000 0.75000000 0.10000000 0.121031
0.05000000 -0.70000000 0.55000000 0.121036
-0.75000000 -0.55000000 0.50000000 0.121043
-0.85000000 0.90000000 -0.25000000 0.121045
-1.00000000 -1.00000000 0.25000000 0.121056
-0.05000000 0.95000000 0.50000000 0.121059
-0.85000000 0.00000000 -0.75000000 0.121060
0.80000000 0.65000000 -0.40000000 0.121086
-0.50000000 -0.35000000 0.55000000 0.121115
0.70000000 0.75000000 -0.40000000 0.121120
0.20000000 0.45000000 -0.95000000 0.121138
0.90000000 0.40000000 -0.50000000 0.121141
-0.20000000 -0.70000000 -0.85000000 0.121149
-0.75000000 0.10000000 0.55000000 0.121156
-0.90000000 -0.30000000 -0.70000000 0.121163
0.90000000 -1.00000000 0.10000000 0.121170
0.25000000 0.75000000 -0.65000000 0.121179
-0.60000000 -1.00000000 0.45000000 0.121186
0.50000000 0.05000000 -0.95000000 0.121186
-0.95000000 0.70000000 -0.40000000 0.121187
0.60000000 -0.70000000 -0.60000000 0.121187
-0.10000000 0.75000000 -0.70000000 0.121195
0.15000000 -0.95000000 -0.70000000 0.121204
-0.10000000 -0.65000000 0.55000000 0.121208
-0.60000000 0.05000000 -1.00000000 0.121210
0.35000000 0.75000000 0.50000000 0.121227
0.45000000 0.70000000 -0.60000000 0.121228
-0.55000000 1.00000000 -0.45000000 0.121233
-0.80000000 0.30000000 -0.70000000 0.121235
0.65000000 0.15000000 0.55000000 0.121237
0.60000000 0.15000000 -0.80000000 0.121247
0.65000000 -0.30000000 -0.75000000 0.121250
0.50000000 -0.95000000 -0.55000000 0.121268
0.40000000 -0.90000000 0.50000000 0.121280
0.85000000 0.45000000 -0.50000000 0.121282
-0.50000000 -0.60000000 -0.80000000 0.121287
0.80000000 0.30000000 -0.60000000 0.121295
-0.80000000 0.15000000 -0.75000000 0.121302
-0.50000000 -0.40000000 -1.00000000 0.121310
0.80000000 -0.25000000 -0.65000000 0.121310
-0.45000000 0.50000000 -0.80000000 0.121317
0.75000000 -0.50000000 -0.60000000 0.121318
0.20000000 -0.90000000 -0.70000000 0.121328
-0.65000000 0.85000000 -0.45000000 0.121339
1.00000000 -0.90000000 -0.05000000 0.121348
-1.00000000 -0.20000000 -0.70000000 0.121353
-0.50000000 0.60000000 -0.70000000 0.121356
0.05000000 0.65000000 0.55000000 0.121358
-1.00000000 0.90000000 -0.10000000 0.121361
-0.10000000 0.65000000 0.55000000 0.121365
0.90000000 -1.00000000 -0.10000000 0.121371
0.90000000 -0.40000000 -0.55000000 0.121391
0.40000000 0.90000000 -0.50000000 0.121397
-0.75000000 -0.10000000 0.55000000 0.121404
0.65000000 0.80000000 -0.40000000 0.121405
-0.40000000 -0.50000000 -1.00000000 0.121410
-0.20000000 -0.65000000 -0.90000000 0.121437
-0.25000000 0.60000000 -0.80000000 0.121443
0.40000000 0.25000000 -1.00000000 0.121454
-0.85000000 0.95000000 -0.20000000 0.121458
-0.65000000 0.25000000 0.55000000 0.121465
0.45000000 0.85000000 -0.50000000 0.121472
-0.90000000 0.95000000 0.10000000 0.121472
-0.35000000 -0.45000000 0.55000000 0.121479
1.00000000 -0.90000000 0.05000000 0.121483
-0.35000000 0.55000000 0.55000000 0.121523
0.75000000 -0.15000000 -0.70000000 0.121533
0.70000000 0.45000000 -0.60000000 0.121536
-0.90000000 -0.55000000 -0.60000000 0.121546
0.80000000 0.30000000 0.50000000 0.121546
0.60000000 0.25000000 0.55000000 0.121549
1.00000000 -0.45000000 -0.50000000 0.121550
-0.20000000 0.90000000 -0.60000000 0.121583
-0.95000000 0.75000000 -0.35000000 0.121586
-0.45000000 1.00000000 -0.50000000 0.121590
-0.25000000 -0.60000000 -0.95000000 0.121594
0.35000000 -0.45000000 -0.95000000 0.121608
0.10000000 0.90000000 0.50000000 0.121617
0.60000000 -0.30000000 0.55000000 0.121617
-0.15000000 -0.60000000 0.55000000 0.121621
-0.70000000 0.20000000 -0.80000000 0.121626
0.65000000 -0.20000000 0.55000000 0.121639
0.05000000 0.50000000 -0.95000000 0.121642
0.50000000 -0.75000000 0.50000000 0.121645
-0.40000000 1.00000000 0.45000000 0.121654
0.20000000 1.00000000 -0.55000000 0.121656
-0.50000000 0.85000000 0.45000000 0.121668
-0.55000000 -0.30000000 0.55000000 0.121670
-0.45000000 -0.90000000 0.50000000 0.121679
0.90000000 0.10000000 -0.60000000 0.121682
0.50000000 0.25000000 -0.85000000 0.121694
0.20000000 -0.60000000 -0.90000000 0.121695
-0.05000000 0.75000000 -0.70000000 0.121703
-0.50000000 -0.75000000 -0.70000000 0.121705
0.25000000 0.40000000 -1.00000000 0.121710
0.25000000 0.50000000 -0.85000000 0.121715
0.35000000 -0.55000000 0.55000000 0.121743
0.90000000 -0.60000000 -0.45000000 0.121766
-0.40000000 -1.00000000 -0.65000000 0.121767
0.85000000 -1.00000000 -0.20000000 0.121775
-1.00000000 -0.80000000 0.35000000 0.121782
-0.45000000 0.70000000 -0.65000000 0.121787
-0.70000000 -0.15000000 -0.85000000 0.121804
0.80000000 -0.80000000 0.35000000 0.121805
1.00000000 0.20000000 -0.55000000 0.121852
0.50000000 -0.15000000 -0.95000000 0.121857
-0.45000000 -0.90000000 -0.65000000 0.121860
0.95000000 -0.20000000 0.50000000 0.121863
0.20000000 -0.65000000 -0.85000000 0.121893
-0.90000000 1.00000000 0.00000000 0.121896
0.20000000 0.85000000 -0.60000000 0.121899
-1.00000000 0.35000000 0.50000000 0.121903
-0.85000000 0.85000000 -0.30000000 0.121919
-0.85000000 -0.10000000 -0.75000000 0.121928
-0.20000000 -0.55000000 0.55000000 0.121943
0.50000000 0.15000000 -0.90000000 0.121947
0.05000000 -0.60000000 -1.00000000 0.121970
0.00000000 0.65000000 0.55000000 0.121975
-0.05000000 0.65000000 0.55000000 0.121975
-0.25000000 0.60000000 0.55000000 0.121975
-0.35000000 -0.70000000 -0.80000000 0.121978
-0.55000000 0.65000000 0.50000000 0.121988
-0.60000000 0.10000000 -0.95000000 0.122002
-0.55000000 -0.35000000 -0.95000000 0.122009
0.85000000 0.60000000 -0.40000000 0.122012
0.75000000 0.25000000 -0.65000000 0.122015
-0.55000000 -0.55000000 -0.80000000 0.122025
0.20000000 0.70000000 -0.70000000 0.122027
-0.75000000 -0.20000000 -0.80000000 0.122061
-0.15000000 0.50000000 -0.95000000 0.122063
0.15000000 -0.65000000 0.55000000 0.122071
-0.70000000 -0.15000000 0.55000000 0.122074
-0.60000000 -0.25000000 0.55000000 0.122081
-0.70000000 0.00000000 -0.85000000 0.122092
0.85000000 0.55000000 0.40000000 0.122093
0.30000000 -0.95000000 -0.65000000 0.122101
-0.40000000 -0.40000000 0.55000000 0.122104
-0.05000000 -0.65000000 0.55000000 0.122116
-1.00000000 -0.60000000 -0.55000000 0.122117
-0.95000000 0.40000000 -0.60000000 0.122121
-0.30000000 -0.80000000 -0.75000000 0.122135
-0.85000000 -0.05000000 -0.75000000 0.122136
0.35000000 -0.55000000 -0.85000000 0.122146
-0.80000000 -1.00000000 0.35000000 0.122151
-0.95000000 -0.90000000 0.30000000 0.122175
0.15000000 0.50000000 -0.90000000 0.122181
0.55000000 -0.25000000 -0.85000000 0.122183
-0.85000000 0.80000000 -0.35000000 0.122191
0.45000000 0.15000000 -1.00000000 0.122195
0.95000000 0.10000000 0.50000000 0.122212
-0.30000000 0.45000000 -0.95000000 0.122216
0.40000000 0.45000000 -0.80000000 0.122221
0.30000000 0.55000000 0.55000000 0.122222
-0.85000000 -0.75000000 -0.50000000 0.122224
0.45000000 0.40000000 -0.80000000 0.122250
0.70000000 1.00000000 0.20000000 0.122251
-0.65000000 -0.20000000 0.55000000 0.122254
-0.75000000 0.05000000 0.55000000 0.122260
0.20000000 0.60000000 0.55000000 0.122262
0.50000000 -0.55000000 -0.75000000 0.122272
0.45000000 0.25000000 -0.90000000 0.122276
-0.90000000 -0.95000000 0.30000000 0.122278
-0.75000000 -0.85000000 -0.50000000 0.122297
-0.25000000 -0.50000000 0.55000000 0.122312
0.40000000 -0.65000000 -0.75000000 0.122313
-0.80000000 0.70000000 0.40000000 0.122326
-0.35000000 -0.55000000 -0.95000000 0.122332
-0.60000000 0.90000000 -0.45000000 0.122337
0.85000000 0.75000000 -0.25000000 0.122345
-0.90000000 -0.45000000 0.50000000 0.122348
0.25000000 -0.60000000 0.55000000 0.122355
-0.75000000 -0.05000000 0.55000000 0.122357
-0.35000000 0.75000000 -0.65000000 0.122362
-0.80000000 0.50000000 -0.60000000 0.122370
-0.45000000 0.90000000 0.45000000 0.122402
-0.40000000 0.80000000 -0.60000000 0.122406
0.25000000 0.45000000 -0.90000000 0.122442
0.95000000 0.45000000 -0.45000000 0.122445
1.00000000 0.70000000 -0.20000000 0.122445
-0.75000000 -1.00000000 -0.45000000 0.122446
0.05000000 -0.70000000 -0.85000000 0.122447
1.00000000 -0.15000000 0.50000000 0.122458
-0.85000000 -0.65000000 0.45000000 0.122470
-1.00000000 -0.75000000 -0.45000000 0.122474
0.45000000 -0.30000000 -0.95000000 0.122476
0.55000000 -0.85000000 -0.55000000 0.122501
-0.60000000 0.30000000 0.55000000 0.122504
-0.65000000 -0.85000000 0.45000000 0.122507
-0.55000000 -0.90000000 -0.60000000 0.122512
0.50000000 0.90000000 0.40000000 0.122521
0.75000000 0.00000000 -0.70000000 0.122521
0.75000000 -0.45000000 0.50000000 0.122538
-0.50000000 -0.80000000 0.50000000 0.122543
0.60000000 0.85000000 -0.40000000 0.122545
0.80000000 -0.70000000 -0.45000000 0.122549
-0.55000000 0.80000000 0.45000000 0.122551
-0.95000000 0.10000000 -0.70000000 0.122554
-0.70000000 0.15000000 0.55000000 0.122557
0.05000000 -0.85000000 -0.75000000 0.122570
0.95000000 -0.45000000 0.45000000 0.122572
0.05000000 -0.65000000 -0.90000000 0.122596
-0.45000000 -0.45000000 -1.00000000 0.122624
0.90000000 -0.25000000 0.50000000 0.122631
0.40000000 -0.50000000 -0.85000000 0.122631
-0.65000000 0.95000000 0.35000000 0.122643
0.75000000 0.85000000 -0.25000000 0.122643
0.90000000 -0.70000000 0.35000000 0.122648
-0.75000000 0.00000000 0.55000000 0.122651
-0.75000000 0.05000000 -0.80000000 0.122652
0.85000000 0.20000000 -0.60000000 0.122653
1.00000000 0.05000000 0.50000000 0.122666
-0.60000000 -1.00000000 -0.55000000 0.122667
0.15000000 0.45000000 -1.00000000 0.122671
0.10000000 0.80000000 -0.65000000 0.122680
0.10000000 -0.75000000 -0.80000000 0.122682
0.00000000 -0.65000000 0.55000000 0.122688
1.00000000 0.55000000 0.35000000 0.122707
0.10000000 -0.65000000 0.55000000 0.122715
-0.70000000 -0.55000000 -0.70000000 0.122730
-0.35000000 0.50000000 -0.85000000 0.122737
-0.10000000 -0.60000000 0.55000000 0.122739
0.85000000 0.85000000 0.00000000 0.122741
-0.80000000 0.85000000 0.30000000 0.122767
-0.45000000 -0.35000000 0.55000000 0.122775
-0.30000000 -0.45000000 0.55000000 0.122795
-0.65000000 -0.15000000 -0.90000000 0.122799
0.45000000 0.55000000 -0.70000000 0.122804
-0.65000000 0.55000000 -0.65000000 0.122833
-0.30000000 0.70000000 -0.70000000 0.122843
-0.70000000 0.80000000 -0.45000000 0.122860
-0.60000000 0.35000000 -0.80000000 0.122862
0.40000000 -0.50000000 0.55000000 0.122868
0.05000000 -0.65000000 0.55000000 0.122902
-0.70000000 -0.45000000 -0.75000000 0.122907
0.25000000 -0.85000000 -0.70000000 0.122909
0.70000000 0.20000000 -0.70000000 0.122913
0.70000000 -1.00000000 0.35000000 0.122928
0.60000000 -0.40000000 -0.75000000 0.122938
-1.00000000 0.85000000 -0.20000000 0.122946
-0.25000000 0.50000000 -0.90000000 0.122949
0.55000000 0.45000000 -0.70000000 0.122968
0.10000000 -1.00000000 -0.70000000 0.122973
0.95000000 0.35000000 0.45000000 0.122991
0.85000000 -0.65000000 0.40000000 0.122998
0.90000000 -0.20000000 -0.60000000 0.123007
-0.25000000 0.85000000 0.50000000 0.123018
0.80000000 0.50000000 -0.50000000 0.123019
-0.40000000 0.50000000 0.55000000 0.123042
0.75000000 -0.10000000 -0.70000000 0.123046
0.80000000 -0.70000000 0.40000000 0.123053
-0.45000000 0.85000000 -0.55000000 0.123057
-0.85000000 0.40000000 0.50000000 0.123062
-1.00000000 0.05000000 -0.70000000 0.123069
-0.55000000 -0.40000000 -0.90000000 0.123098
1.00000000 0.70000000 0.20000000 0.123105
0.65000000 -0.75000000 0.45000000 0.123110
-0.65000000 0.00000000 -0.90000000 0.123113
-0.70000000 -0.10000000 -0.85000000 0.123117
0.45000000 0.95000000 -0.45000000 0.123127
-0.15000000 -0.55000000 0.55000000 0.123127
0.45000000 1.00000000 0.40000000 0.123131
-0.60000000 -0.15000000 -1.00000000 0.123134
0.55000000 -0.35000000 0.55000000 0.123136
-0.35000000 0.40000000 -1.00000000 0.123141
-0.30000000 0.85000000 -0.60000000 0.123145
0.70000000 1.00000000 -0.20000000 0.123148
0.50000000 0.80000000 -0.50000000 0.123149
0.10000000 -0.60000000 -0.95000000 0.123152
0.30000000 -0.65000000 -0.80000000 0.123153
-0.65000000 0.70000000 -0.55000000 0.123154
-0.30000000 1.00000000 -0.55000000 0.123161
0.95000000 -0.70000000 -0.35000000 0.123167
0.25000000 0.55000000 -0.80000000 0.123171
-0.25000000 -0.95000000 -0.70000000 0.123175
0.45000000 -0.60000000 -0.75000000 0.123177
0.50000000 0.00000000 -0.95000000 0.123178
0.90000000 0.15000000 0.50000000 0.123197
-0.70000000 -0.05000000 -0.85000000 0.123210
-0.15000000 0.90000000 0.50000000 0.123217
0.15000000 0.65000000 -0.75000000 0.123235
0.60000000 -0.25000000 -0.80000000 0.123243
0.55000000 -0.75000000 -0.60000000 0.123258
0.40000000 -0.35000000 -1.00000000 0.123281
-0.20000000 0.80000000 -0.65000000 0.123296
0.65000000 0.10000000 0.55000000 0.123298
-0.80000000 -0.50000000 0.50000000 0.123300
0.30000000 0.65000000 -0.70000000 0.123311
-0.90000000 -0.95000000 -0.35000000 0.123325
-0.55000000 0.35000000 0.55000000 0.123344
-0.60000000 -0.40000000 -0.85000000 0.123351
-0.95000000 -0.90000000 -0.35000000 0.123355
0.75000000 -0.05000000 -0.70000000 0.123375
0.55000000 0.25000000 -0.80000000 0.123381
-0.95000000 -0.40000000 -0.65000000 0.123386
1.00000000 -0.90000000 0.00000000 0.123395
-0.35000000 -0.40000000 0.55000000 0.123400
0.45000000 -0.25000000 -1.00000000 0.123416
-0.50000000 -0.30000000 0.55000000 0.123417
0.55000000 -0.90000000 0.45000000 0.123450
-0.20000000 -0.50000000 0.55000000 0.123475
-0.55000000 -0.70000000 -0.70000000 0.123483
-0.40000000 -0.55000000 -0.90000000 0.123490
0.45000000 -0.80000000 0.50000000 0.123507
0.50000000 -0.25000000 -0.90000000 0.123511
0.50000000 -0.10000000 -0.95000000 0.123518
0.65000000 -0.15000000 0.55000000 0.123524
-0.60000000 0.00000000 -1.00000000 0.123575
-0.85000000 -0.35000000 -0.70000000 0.123588
-0.25000000 0.45000000 -1.00000000 0.123602
0.45000000 -0.45000000 0.55000000 0.123605
-0.70000000 -0.10000000 0.55000000 0.123606
-0.05000000 -0.60000000 0.55000000 0.123619
0.00000000 0.50000000 -0.95000000 0.123619
-0.15000000 -0.60000000 -1.00000000 0.123629
-0.95000000 -0.60000000 0.45000000 0.123631
-0.35000000 0.45000000 -0.90000000 0.123641
0.20000000 -0.60000000 0.55000000 0.123641
-0.15000000 -0.85000000 -0.75000000 0.123691
-0.95000000 0.35000000 0.50000000 0.123722
-0.75000000 0.35000000 -0.70000000 0.123743
0.50000000 -0.40000000 0.55000000 0.123753
-0.80000000 0.40000000 -0.65000000 0.123763
-1.00000000 -0.50000000 -0.60000000 0.123763
0.95000000 0.35000000 -0.50000000 0.123769
-0.45000000 0.45000000 0.55000000 0.123769
0.95000000 -0.80000000 -0.25000000 0.123777
-0.90000000 0.15000000 -0.70000000 0.123795
0.75000000 0.75000000 -0.35000000 0.123795
-0.70000000 0.50000000 -0.65000000 0.123795
-0.60000000 -0.95000000 0.45000000 0.123796
-0.30000000 -0.90000000 -0.70000000 0.123807
0.85000000 -0.90000000 -0.25000000 0.123808
0.55000000 0.30000000 0.55000000 0.123815
-0.50000000 0.40000000 0.55000000 0.123821
-0.25000000 0.65000000 -0.75000000 0.123827
-0.10000000 0.50000000 -0.95000000 0.123835
1.00000000 -0.30000000 -0.55000000 0.123841
-0.50000000 0.45000000 -0.80000000 0.123849
-0.55000000 0.20000000 -0.95000000 0.123851
0.90000000 0.80000000 -0.05000000 0.123855
0.30000000 -0.55000000 0.55000000 0.123856
-0.15000000 -0.70000000 -0.85000000 0.123860
-0.60000000 0.60000000 0.50000000 0.123891
0.80000000 0.10000000 -0.65000000 0.123899
-0.25000000 -0.45000000 0.55000000 0.123903
0.50000000 0.50000000 -0.70000000 0.123904
0.65000000 0.30000000 -0.70000000 0.123912
-0.65000000 0.20000000 0.55000000 0.123919
-0.75000000 0.45000000 -0.65000000 0.123920
-0.55000000 0.95000000 0.40000000 0.123923
1.00000000 -0.65000000 0.35000000 0.123931
-0.55000000 -0.25000000 0.55000000 0.123940
0.80000000 0.90000000 -0.05000000 0.123958
0.50000000 -0.05000000 -0.95000000 0.123960
0.35000000 0.30000000 -1.00000000 0.123982
0.65000000 0.15000000 -0.75000000 0.123990
-0.85000000 0.35000000 -0.65000000 0.123994
-0.65000000 -0.30000000 -0.85000000 0.123998
-0.55000000 0.70000000 -0.60000000 0.124021
-0.70000000 0.10000000 0.55000000 0.124032
-0.50000000 0.25000000 -1.00000000 0.124033
-0.55000000 -0.30000000 -1.00000000 0.124034
0.80000000 0.75000000 -0.30000000 0.124062
0.30000000 0.35000000 -1.00000000 0.124070
0.35000000 0.95000000 -0.50000000 0.124088
-0.40000000 -0.35000000 0.55000000 0.124093
-0.35000000 0.55000000 -0.80000000 0.124095
0.80000000 0.70000000 -0.35000000 0.124096
-0.40000000 -0.60000000 -0.85000000 0.124108
-0.40000000 0.75000000 0.50000000 0.124114
-0.65000000 -0.60000000 -0.70000000 0.124117
-0.15000000 -0.65000000 -0.90000000 0.124134
0.35000000 0.55000000 -0.75000000 0.124136
-0.10000000 -0.55000000 0.55000000 0.124136
0.50000000 -0.45000000 -0.80000000 0.124140
-0.65000000 -0.10000000 -0.90000000 0.124140
0.25000000 0.80000000 0.50000000 0.124171
-0.65000000 -0.15000000 0.55000000 0.124178
-0.45000000 -0.70000000 -0.75000000 0.124198
0.75000000 0.80000000 -0.30000000 0.124213
0.60000000 -0.60000000 -0.65000000 0.124217
-0.20000000 0.60000000 0.55000000 0.124224
-1.00000000 0.50000000 0.45000000 0.124230
-0.75000000 0.90000000 0.30000000 0.124231
-0.60000000 -0.20000000 0.55000000 0.124238
-0.65000000 -0.05000000 -0.90000000 0.124241
1.00000000 -0.85000000 0.15000000 0.124246
0.00000000 -0.60000000 -1.00000000 0.124255
0.00000000 -0.60000000 0.55000000 0.124257
0.35000000 0.50000000 0.55000000 0.124263
-0.30000000 -0.55000000 -1.00000000 0.124279
0.05000000 0.90000000 0.50000000 0.124299
-0.80000000 0.65000000 -0.50000000 0.124317
0.75000000 0.35000000 0.50000000 0.124336
-0.55000000 0.40000000 -0.80000000 0.124339
0.05000000 0.90000000 -0.60000000 0.124353
-0.05000000 0.50000000 -0.95000000 0.124356
0.85000000 -0.45000000 -0.55000000 0.124364
0.80000000 0.90000000 0.05000000 0.124364
0.70000000 0.80000000 -0.35000000 0.124368
-0.60000000 -0.65000000 -0.70000000 0.124372
-0.60000000 0.75000000 0.45000000 0.124378
0.15000000 -0.60000000 0.55000000 0.124391
0.55000000 0.35000000 -0.75000000 0.124394
0.50000000 -0.35000000 -0.85000000 0.124398
0.90000000 0.80000000 0.05000000 0.124425
-0.50000000 0.90000000 -0.50000000 0.124454
-0.30000000 -0.40000000 0.55000000 0.124461
-0.20000000 -1.00000000 -0.70000000 0.124474
0.40000000 0.80000000 -0.55000000 0.124484
-0.40000000 0.65000000 -0.70000000 0.124487
1.00000000 -0.10000000 0.50000000 0.124492
-0.15000000 -0.50000000 0.55000000 0.124494
0.40000000 -0.95000000 -0.60000000 0.124508
0.85000000 -0.30000000 0.50000000 0.124518
0.15000000 0.60000000 0.55000000 0.124522
0.60000000 -0.25000000 0.55000000 0.124523
-1.00000000 -0.15000000 -0.70000000 0.124530
-0.60000000 -0.10000000 -1.00000000 0.124558
1.00000000 -0.85000000 -0.15000000 0.124566
0.25000000 -0.75000000 -0.75000000 0.124567
0.10000000 0.55000000 -0.85000000 0.124570
-0.20000000 -0.75000000 -0.80000000 0.124586
-0.70000000 -0.05000000 0.55000000 0.124591
1.00000000 0.00000000 0.50000000 0.124598
-0.60000000 -0.30000000 -0.90000000 0.124601
0.80000000 -0.40000000 -0.60000000 0.124601
0.45000000 -0.35000000 -0.90000000 0.124625
0.00000000 -0.70000000 -0.85000000 0.124628
0.05000000 -0.60000000 0.55000000 0.124630
-0.75000000 -0.15000000 -0.80000000 0.124641
0.25000000 -0.50000000 -1.00000000 0.124648
0.40000000 0.70000000 0.50000000 0.124651
0.55000000 0.10000000 -0.85000000 0.124658
0.65000000 0.05000000 0.55000000 0.124663
-0.30000000 0.55000000 0.55000000 0.124663
0.50000000 0.65000000 -0.60000000 0.124679
0.65000000 -0.90000000 0.40000000 0.124681
0.80000000 0.40000000 -0.55000000 0.124682
0.60000000 0.20000000 0.55000000 0.124694
0.10000000 -0.60000000 0.55000000 0.124694
-0.60000000 -0.05000000 -1.00000000 0.124702
0.90000000 -0.50000000 -0.50000000 0.124712
-1.00000000 0.90000000 0.05000000 0.124715
0.65000000 0.90000000 0.30000000 0.124765
0.65000000 -0.10000000 0.55000000 0.124773
0.95000000 -0.90000000 0.10000000 0.124785
-0.95000000 -0.20000000 -0.70000000 0.124788
0.95000000 -0.90000000 -0.10000000 0.124792
-0.45000000 -0.30000000 0.55000000 0.124807
0.00000000 -0.65000000 -0.90000000 0.124815
0.00000000 -0.85000000 -0.75000000 0.124831
-0.70000000 0.05000000 0.55000000 0.124837
-0.60000000 0.25000000 -0.85000000 0.124856
0.70000000 -0.50000000 0.50000000 0.124860
-0.20000000 -0.45000000 0.55000000 0.124870
0.65000000 0.50000000 -0.60000000 0.124874
-0.90000000 0.95000000 -0.10000000 0.124878
-0.15000000 0.90000000 -0.60000000 0.124880
-0.65000000 0.15000000 -0.85000000 0.124891
0.70000000 -0.45000000 -0.65000000 0.124902
-1.00000000 0.25000000 -0.65000000 0.124903
-0.80000000 -0.25000000 -0.75000000 0.124906
-0.85000000 0.45000000 -0.60000000 0.124914
-0.55000000 0.55000000 -0.70000000 0.124928
-0.70000000 0.95000000 -0.35000000 0.124930
-0.60000000 -0.20000000 -0.95000000 0.124931
0.20000000 -0.55000000 -0.95000000 0.124944
-0.95000000 0.90000000 0.10000000 0.124949
-0.70000000 0.30000000 -0.75000000 0.124950
-0.70000000 1.00000000 0.30000000 0.124960
0.85000000 -0.30000000 -0.60000000 0.124964
-0.50000000 -1.00000000 -0.60000000 0.124971
-0.75000000 0.00000000 -0.80000000 0.124977
0.10000000 0.60000000 -0.80000000 0.124981
0.60000000 -0.50000000 -0.70000000 0.124982
-0.05000000 -0.55000000 0.55000000 0.124988
0.95000000 -0.75000000 -0.30000000 0.124995
0.30000000 1.00000000 0.45000000 0.124996
0.65000000 -0.80000000 -0.50000000 0.124996
-0.70000000 0.00000000 0.55000000 0.125011
0.70000000 -0.65000000 -0.55000000 0.125015
0.90000000 0.55000000 -0.40000000 0.125018
-0.55000000 0.25000000 -0.90000000 0.125023
-0.55000000 0.85000000 -0.50000000 0.125043
0.70000000 0.90000000 0.25000000 0.125051
0.75000000 -0.35000000 -0.65000000 0.125078
-0.20000000 0.55000000 -0.85000000 0.125083
-0.10000000 -0.60000000 -1.00000000 0.125103
0.75000000 -0.75000000 0.40000000 0.125118
0.95000000 -0.15000000 0.50000000 0.125134
-0.35000000 -0.35000000 0.55000000 0.125142
0.50000000 -0.80000000 -0.60000000 0.125168
-0.60000000 0.25000000 0.55000000 0.125207
0.75000000 0.55000000 -0.50000000 0.125210
1.00000000 -0.05000000 0.50000000 0.125211
0.50000000 0.35000000 0.55000000 0.125223
0.90000000 0.50000000 0.40000000 0.125223
0.20000000 -0.70000000 -0.80000000 0.125234
0.15000000 0.85000000 0.50000000 0.125238
-0.10000000 0.90000000 0.50000000 0.125264
0.35000000 -0.50000000 0.55000000 0.125267
0.25000000 -0.55000000 0.55000000 0.125274
-0.95000000 0.80000000 0.25000000 0.125275
0.55000000 0.75000000 -0.50000000 0.125290
-0.90000000 0.30000000 -0.65000000 0.125297
0.80000000 -1.00000000 0.25000000 0.125299
-0.05000000 -0.60000000 -1.00000000 0.125309
-0.65000000 0.55000000 0.50000000 0.125310
-0.30000000 -0.65000000 -0.85000000 0.125324
0.90000000 0.05000000 -0.60000000 0.125328
0.30000000 -0.80000000 -0.70000000 0.125350
-0.10000000 -0.70000000 -0.85000000 0.125350
0.65000000 0.00000000 0.55000000 0.125352
0.15000000 -0.80000000 -0.75000000 0.125353
-0.25000000 -0.40000000 0.55000000 0.125361
-0.40000000 -0.95000000 -0.65000000 0.125364
0.95000000 0.05000000 0.50000000 0.125374
0.65000000 -0.05000000 0.55000000 0.125385
-0.90000000 0.85000000 -0.25000000 0.125386
-0.30000000 -0.60000000 -0.90000000 0.125389
-0.40000000 0.95000000 0.45000000 0.125392
-0.75000000 -0.75000000 -0.55000000 0.125396
0.85000000 0.20000000 0.50000000 0.125399
0.35000000 -1.00000000 0.50000000 0.125401
-0.10000000 -0.85000000 -0.75000000 0.125404
-0.10000000 -0.50000000 0.55000000 0.125407
-0.85000000 1.00000000 -0.15000000 0.125412
0.80000000 -0.20000000 -0.65000000 0.125419
-1.00000000 -0.70000000 0.40000000 0.125437
-0.45000000 0.55000000 -0.75000000 0.125440
-0.20000000 0.60000000 -0.80000000 0.125442
0.40000000 0.45000000 0.55000000 0.125445
-0.50000000 -0.25000000 0.55000000 0.125449
0.25000000 0.55000000 0.55000000 0.125463
0.60000000 0.10000000 -0.80000000 0.125474
-0.80000000 0.95000000 -0.25000000 0.125514
0.85000000 -0.55000000 -0.50000000 0.125515
1.00000000 0.50000000 -0.40000000 0.125522
0.90000000 -0.60000000 0.40000000 0.125558
-1.00000000 0.00000000 -0.70000000 0.125563
0.65000000 -0.90000000 -0.45000000 0.125576
-0.20000000 -0.60000000 -0.95000000 0.125582
0.70000000 -0.30000000 -0.70000000 0.125594
-0.60000000 0.05000000 -0.95000000 0.125598
-0.10000000 -0.65000000 -0.90000000 0.125601
-0.05000000 -0.70000000 -0.85000000 0.125605
-0.55000000 0.15000000 -1.00000000 0.125613
-0.50000000 -0.45000000 -0.90000000 0.125621
-0.95000000 0.75000000 0.30000000 0.125635
-0.65000000 -0.10000000 0.55000000 0.125655
-0.65000000 0.15000000 0.55000000 0.125668
0.00000000 -0.55000000 0.55000000 0.125682
0.40000000 0.25000000 -0.95000000 0.125686
-0.60000000 0.15000000 -0.90000000 0.125691
0.85000000 0.65000000 -0.35000000 0.125691
-0.85000000 0.55000000 0.45000000 0.125708
0.40000000 0.65000000 -0.65000000 0.125713
-0.15000000 -0.45000000 0.55000000 0.125750
-0.45000000 -0.50000000 -0.90000000 0.125751
0.45000000 0.40000000 0.55000000 0.125766
-0.45000000 -0.85000000 0.50000000 0.125766
0.55000000 0.90000000 -0.40000000 0.125769
-0.05000000 -0.85000000 -0.75000000 0.125785
0.00000000 0.90000000 0.50000000 0.125813
-0.05000000 -0.65000000 -0.90000000 0.125826
-0.50000000 -0.40000000 -0.95000000 0.125831
0.40000000 0.30000000 -0.90000000 0.125832
-0.70000000 0.40000000 -0.70000000 0.125844
-0.80000000 1.00000000 0.20000000 0.125854
-0.95000000 -1.00000000 -0.30000000 0.125857
-0.40000000 0.35000000 -1.00000000 0.125872
-1.00000000 -0.95000000 -0.30000000 0.125874
0.85000000 -0.95000000 0.20000000 0.125874
-0.70000000 -1.00000000 0.40000000 0.125878
-0.40000000 -0.30000000 0.55000000 0.125895
0.05000000 0.80000000 -0.65000000 0.125898
-0.75000000 -0.35000000 -0.75000000 0.125898
0.25000000 0.40000000 -0.95000000 0.125901
-0.55000000 -0.20000000 0.55000000 0.125905
-0.15000000 0.60000000 0.55000000 0.125905
0.75000000 -0.75000000 -0.45000000 0.125907
0.85000000 0.70000000 -0.30000000 0.125916
0.90000000 0.70000000 0.25000000 0.125917
0.30000000 0.40000000 -0.90000000 0.125922
-0.35000000 -0.85000000 -0.70000000 0.125943
-0.40000000 -0.50000000 -0.95000000 0.125983
-0.75000000 -0.10000000 -0.80000000 0.125992
-0.30000000 -0.35000000 0.55000000 0.125997
-0.60000000 -0.15000000 0.55000000 0.126030
-1.00000000 0.60000000 0.40000000 0.126031
0.55000000 -0.20000000 -0.85000000 0.126045
1.00000000 0.75000000 -0.05000000 0.126047
-0.90000000 0.65000000 -0.45000000 0.126054
0.90000000 0.65000000 0.30000000 0.126073
0.05000000 -0.75000000 -0.80000000 0.126090
-0.80000000 0.10000000 -0.75000000 0.126097
-0.75000000 -0.05000000 -0.80000000 0.126101
0.20000000 -0.55000000 0.55000000 0.126112
0.40000000 0.85000000 0.45000000 0.126120
-0.05000000 0.90000000 0.50000000 0.126135
0.55000000 0.95000000 0.35000000 0.126136
-0.95000000 -0.60000000 -0.55000000 0.126142
0.90000000 0.80000000 0.00000000 0.126143
0.65000000 0.40000000 -0.65000000 0.126145
0.65000000 -0.25000000 -0.75000000 0.126151
0.10000000 0.60000000 0.55000000 0.126158
-0.80000000 -0.70000000 -0.55000000 0.126159
-0.75000000 0.75000000 -0.45000000 0.126160
-0.45000000 0.30000000 -1.00000000 0.126166
0.35000000 -0.40000000 -1.00000000 0.126167
-0.20000000 -0.40000000 0.55000000 0.126168
0.80000000 0.90000000 0.00000000 0.126168
-1.00000000 0.55000000 -0.50000000 0.126187
0.95000000 -0.55000000 -0.45000000 0.126190
-0.40000000 -1.00000000 0.50000000 0.126193
0.05000000 -0.55000000 0.55000000 0.126193
0.45000000 0.30000000 -0.85000000 0.126212
-0.65000000 -0.40000000 -0.80000000 0.126228
-0.05000000 -0.50000000 0.55000000 0.126233
0.30000000 0.45000000 -0.85000000 0.126235
0.65000000 0.85000000 -0.35000000 0.126238
0.90000000 -0.15000000 -0.60000000 0.126242
0.75000000 1.00000000 -0.05000000 0.126271
0.15000000 -0.55000000 -1.00000000 0.126303
-1.00000000 -0.10000000 -0.70000000 0.126310
0.55000000 -0.30000000 0.55000000 0.126318
0.50000000 0.10000000 -0.90000000 0.126319
-0.15000000 0.80000000 -0.65000000 0.126322
0.25000000 0.60000000 -0.75000000 0.126323
-0.55000000 0.30000000 0.55000000 0.126327
0.35000000 -0.60000000 -0.80000000 0.126336
0.40000000 -0.85000000 0.50000000 0.126346
0.35000000 0.90000000 0.45000000 0.126350
-0.70000000 -0.80000000 -0.55000000 0.126358
-0.65000000 -0.50000000 -0.75000000 0.126362
0.70000000 0.85000000 -0.30000000 0.126370
-0.85000000 0.20000000 -0.70000000 0.126379
0.10000000 -0.95000000 -0.70000000 0.126403
0.40000000 -0.45000000 0.55000000 0.126412
-0.95000000 0.05000000 -0.70000000 0.126413
-0.85000000 -0.90000000 -0.40000000 0.126420
-0.35000000 0.50000000 0.55000000 0.126423
0.55000000 -1.00000000 -0.50000000 0.126436
0.55000000 -0.35000000 -0.80000000 0.126440
-0.90000000 -0.85000000 -0.40000000 0.126448
0.20000000 0.95000000 -0.55000000 0.126450
-0.70000000 0.50000000 0.50000000 0.126463
0.45000000 0.15000000 -0.95000000 0.126466
-1.00000000 0.90000000 -0.05000000 0.126473
0.10000000 -0.55000000 0.55000000 0.126481
0.15000000 -0.55000000 0.55000000 0.126481
1.00000000 0.45000000 0.40000000 0.126509
0.50000000 1.00000000 -0.40000000 0.126514
-0.70000000 -0.30000000 -0.80000000 0.126541
0.55000000 0.60000000 -0.60000000 0.126551
0.10000000 0.50000000 -0.90000000 0.126552
0.55000000 -0.65000000 -0.65000000 0.126558
-0.85000000 0.80000000 0.30000000 0.126565
0.00000000 0.90000000 -0.60000000 0.126566
0.60000000 -0.80000000 0.45000000 0.126574
-0.10000000 -0.45000000 0.55000000 0.126581
-0.70000000 0.65000000 -0.55000000 0.126594
-0.85000000 -0.45000000 0.50000000 0.126595
0.75000000 1.00000000 0.05000000 0.126608
-0.95000000 -0.80000000 0.35000000 0.126615
0.60000000 0.55000000 -0.60000000 0.126617
0.30000000 -0.45000000 -1.00000000 0.126621
-0.65000000 0.70000000 0.45000000 0.126633
-0.45000000 -0.25000000 0.55000000 0.126635
1.00000000 -0.55000000 0.40000000 0.126650
-1.00000000 -0.05000000 -0.70000000 0.126654
0.05000000 -0.60000000 -0.95000000 0.126656
-0.65000000 -0.05000000 0.55000000 0.126678
-0.30000000 0.80000000 0.50000000 0.126688
0.95000000 0.20000000 -0.55000000 0.126698
-0.60000000 -0.95000000 -0.55000000 0.126705
0.45000000 0.10000000 -1.00000000 0.126708
-0.25000000 -0.35000000 0.55000000 0.126732
1.00000000 0.75000000 0.05000000 0.126735
-0.35000000 -0.30000000 0.55000000 0.126750
-1.00000000 -0.40000000 0.50000000 0.126755
-0.65000000 0.10000000 0.55000000 0.126768
-0.60000000 0.50000000 -0.70000000 0.126777
0.25000000 -0.55000000 -0.90000000 0.126777
0.70000000 -0.55000000 -0.60000000 0.126792
0.65000000 -0.55000000 0.50000000 0.126812
0.60000000 0.25000000 -0.75000000 0.126813
-0.45000000 0.95000000 -0.50000000 0.126813
-0.10000000 0.90000000 -0.60000000 0.126835
0.60000000 -0.20000000 0.55000000 0.126844
0.05000000 -1.00000000 -0.70000000 0.126849
0.15000000 0.45000000 -0.95000000 0.126857
0.75000000 -1.00000000 0.30000000 0.126868
-0.55000000 -0.45000000 -0.85000000 0.126884
0.30000000 -0.50000000 0.55000000 0.126887
0.95000000 -0.45000000 -0.50000000 0.126889
-0.75000000 0.95000000 -0.30000000 0.126899
-0.55000000 0.95000000 -0.45000000 0.126918
-0.90000000 -0.25000000 -0.70000000 0.126924
0.70000000 0.60000000 -0.50000000 0.126931
-0.15000000 -0.40000000 0.55000000 0.126933
-0.80000000 -0.95000000 0.35000000 0.126944
0.45000000 -0.50000000 -0.80000000 0.126952
0.60000000 0.70000000 -0.50000000 0.126968
0.00000000 -0.50000000 0.55000000 0.126970
-0.80000000 -0.40000000 -0.70000000 0.126972
0.35000000 0.75000000 -0.60000000 0.126975
-0.90000000 0.90000000 0.15000000 0.126986
-0.65000000 0.45000000 -0.70000000 0.126995
0.90000000 -0.20000000 0.50000000 0.127002
0.60000000 -0.20000000 -0.80000000 0.127030
-0.10000000 0.60000000 0.55000000 0.127037
0.70000000 0.40000000 0.50000000 0.127053
-0.60000000 -0.65000000 0.50000000 0.127059
0.35000000 0.35000000 -0.90000000 0.127062
-0.95000000 0.50000000 0.45000000 0.127064
0.45000000 -0.40000000 0.55000000 0.127097
-0.90000000 0.50000000 -0.55000000 0.127100
0.35000000 -0.95000000 0.50000000 0.127114
0.60000000 0.15000000 0.55000000 0.127124
0.50000000 -0.35000000 0.55000000 0.127126
0.75000000 -0.85000000 0.35000000 0.127129
0.80000000 -0.35000000 0.50000000 0.127146
0.95000000 -0.10000000 0.50000000 0.127150
-0.50000000 0.35000000 0.55000000 0.127154
-0.50000000 -0.65000000 -0.75000000 0.127160
-0.20000000 0.50000000 -0.90000000 0.127163
-0.20000000 0.85000000 0.50000000 0.127168
0.60000000 1.00000000 0.30000000 0.127173
-0.45000000 -0.45000000 -0.95000000 0.127176
-0.60000000 0.20000000 0.55000000 0.127186
0.05000000 0.60000000 0.55000000 0.127204
-0.90000000 0.35000000 0.50000000 0.127209
-0.65000000 0.00000000 0.55000000 0.127227
-0.25000000 0.55000000 0.55000000 0.127229
-0.50000000 -0.20000000 0.55000000 0.127246
0.10000000 0.45000000 -1.00000000 0.127247
-0.35000000 0.60000000 -0.75000000 0.127255
-0.65000000 -0.60000000 0.50000000 0.127257
-0.45000000 -0.55000000 -0.85000000 0.127264
-0.65000000 0.05000000 0.55000000 0.127271
0.95000000 0.00000000 0.50000000 0.127272
0.80000000 0.05000000 -0.65000000 0.127280
0.90000000 -1.00000000 0.05000000 0.127287
-0.50000000 0.80000000 -0.55000000 0.127287
0.55000000 0.25000000 0.55000000 0.127290
0.90000000 -1.00000000 -0.05000000 0.127293
-0.35000000 0.40000000 -0.95000000 0.127332
-0.40000000 0.45000000 0.55000000 0.127342
-0.75000000 -0.95000000 -0.45000000 0.127359
-0.45000000 0.70000000 0.50000000 0.127360
0.15000000 0.70000000 -0.70000000 0.127362
0.10000000 0.65000000 -0.75000000 0.127368
-0.95000000 -0.75000000 -0.45000000 0.127378
-0.05000000 -0.45000000 0.55000000 0.127380
0.40000000 0.50000000 -0.75000000 0.127389
-0.05000000 0.90000000 -0.60000000 0.127401
-0.15000000 -0.75000000 -0.80000000 0.127408
-0.20000000 -0.35000000 0.55000000 0.127411
0.90000000 0.70000000 -0.25000000 0.127413
-0.40000000 -0.65000000 -0.80000000 0.127428
-0.70000000 0.15000000 -0.80000000 0.127440
0.90000000 0.10000000 0.50000000 0.127446
-0.30000000 -0.30000000 0.55000000 0.127447
-0.40000000 0.40000000 -0.90000000 0.127457
-0.60000000 -0.10000000 0.55000000 0.127462
0.45000000 0.80000000 0.45000000 0.127471
0.40000000 -0.80000000 -0.65000000 0.127471
-0.55000000 -0.70000000 0.50000000 0.127479
-0.75000000 0.20000000 -0.75000000 0.127486
0.75000000 0.35000000 -0.60000000 0.127505
0.15000000 -0.60000000 -0.90000000 0.127507
0.50000000 0.40000000 -0.75000000 0.127518
0.25000000 0.90000000 -0.55000000 0.127519
-0.95000000 -0.50000000 -0.60000000 0.127528
0.50000000 -0.20000000 -0.90000000 0.127531
-0.60000000 0.80000000 -0.50000000 0.127536
-0.45000000 0.40000000 0.55000000 0.127541
-0.40000000 -0.95000000 0.50000000 0.127551
-0.40000000 -0.25000000 0.55000000 0.127551
-0.40000000 0.45000000 -0.85000000 0.127562
0.25000000 -0.60000000 -0.85000000 0.127564
-0.65000000 0.25000000 -0.80000000 0.127566
0.70000000 -0.95000000 0.35000000 0.127569
-0.55000000 -0.15000000 0.55000000 0.127582
0.65000000 0.65000000 -0.50000000 0.127584
0.45000000 0.65000000 0.50000000 0.127588
0.50000000 -0.70000000 -0.65000000 0.127595
0.35000000 -0.85000000 -0.65000000 0.127597
0.05000000 -0.50000000 0.55000000 0.127598
-0.60000000 -0.15000000 -0.95000000 0.127618
0.15000000 -0.65000000 -0.85000000 0.127629
-0.05000000 0.60000000 0.55000000 0.127631
0.90000000 0.00000000 -0.60000000 0.127650
0.45000000 -0.20000000 -1.00000000 0.127650
0.45000000 -0.85000000 -0.60000000 0.127651
0.05000000 0.55000000 -0.85000000 0.127655
-1.00000000 0.90000000 0.00000000 0.127657
0.40000000 -0.55000000 -0.80000000 0.127663
-0.25000000 -0.80000000 -0.75000000 0.127671
0.00000000 0.60000000 0.55000000 0.127689
-0.10000000 -0.40000000 0.55000000 0.127694
0.45000000 -0.75000000 -0.65000000 0.127706
-0.75000000 0.45000000 0.50000000 0.127712
-0.50000000 0.65000000 -0.65000000 0.127731
-0.90000000 -0.70000000 -0.50000000 0.127747
0.40000000 -0.35000000 -0.95000000 0.127759
0.65000000 -0.40000000 -0.70000000 0.127762
0.15000000 -0.90000000 -0.70000000 0.127773
0.90000000 0.25000000 -0.55000000 0.127786
-0.25000000 0.45000000 -0.95000000 0.127786
0.30000000 0.50000000 0.55000000 0.127813
0.55000000 0.05000000 -0.85000000 0.127822
-0.20000000 0.65000000 -0.75000000 0.127834
0.65000000 1.00000000 0.25000000 0.127846
0.25000000 -0.50000000 0.55000000 0.127854
0.45000000 -0.25000000 -0.95000000 0.127854
-0.75000000 1.00000000 0.25000000 0.127856
0.95000000 -0.05000000 0.50000000 0.127868
0.20000000 0.75000000 -0.65000000 0.127888
-0.15000000 -1.00000000 -0.70000000 0.127891
-0.70000000 -0.90000000 -0.50000000 0.127895
0.00000000 0.80000000 -0.65000000 0.127900
-0.80000000 -0.80000000 0.40000000 0.127948
-0.95000000 -0.15000000 -0.70000000 0.127956
0.15000000 0.85000000 -0.60000000 0.127964
-0.20000000 -0.95000000 -0.70000000 0.127966
-0.35000000 -0.75000000 -0.75000000 0.127978
0.35000000 -0.75000000 -0.70000000 0.127980
-0.20000000 0.45000000 -1.00000000 0.127988
-0.60000000 0.00000000 -0.95000000 0.127999
0.05000000 0.60000000 -0.80000000 0.127999
-0.30000000 0.95000000 -0.55000000 0.128004
0.80000000 -0.90000000 -0.30000000 0.128008
-0.15000000 0.55000000 -0.85000000 0.128012
0.70000000 0.90000000 -0.25000000 0.128017
0.20000000 0.55000000 0.55000000 0.128022
-1.00000000 -0.95000000 0.25000000 0.128032
-0.70000000 -0.55000000 0.50000000 0.128040
-0.25000000 0.70000000 -0.70000000 0.128050
-0.25000000 -0.30000000 0.55000000 0.128056
0.10000000 -0.50000000 0.55000000 0.128074
0.45000000 0.95000000 0.40000000 0.128085
-0.15000000 -0.35000000 0.55000000 0.128085
-0.95000000 -1.00000000 0.25000000 0.128096
0.90000000 -0.10000000 -0.60000000 0.128116
-0.10000000 0.80000000 -0.65000000 0.128116
-0.50000000 0.30000000 -0.90000000 0.128126
0.00000000 -0.45000000 0.55000000 0.128150
0.95000000 0.75000000 -0.10000000 0.128156
-0.95000000 -0.40000000 0.50000000 0.128200
0.35000000 0.30000000 -0.95000000 0.128206
-0.50000000 -0.50000000 -0.85000000 0.128215
0.80000000 -0.60000000 -0.50000000 0.128215
0.25000000 -1.00000000 -0.65000000 0.128241
0.60000000 -0.60000000 0.50000000 0.128244
0.30000000 0.75000000 0.50000000 0.128245
-0.35000000 -0.25000000 0.55000000 0.128265
-0.95000000 0.25000000 -0.65000000 0.128266
0.65000000 0.10000000 -0.75000000 0.128276
0.30000000 0.35000000 -0.95000000 0.128280
-0.50000000 0.25000000 -0.95000000 0.128291
-0.45000000 -0.20000000 0.55000000 0.128292
-0.85000000 0.65000000 0.40000000 0.128293
0.20000000 -0.50000000 0.55000000 0.128296
0.50000000 0.20000000 -0.85000000 0.128300
0.00000000 -0.75000000 -0.80000000 0.128304
0.20000000 0.50000000 -0.85000000 0.128309
-0.15000000 0.60000000 -0.80000000 0.128318
-0.60000000 0.65000000 -0.60000000 0.128324
0.80000000 -0.15000000 -0.65000000 0.128326
0.15000000 -0.50000000 0.55000000 0.128335
-0.15000000 -0.60000000 -0.95000000 0.128337
-0.60000000 -0.55000000 -0.75000000 0.128338
0.35000000 -0.45000000 0.55000000 0.128344
0.85000000 0.80000000 -0.15000000 0.128348
0.85000000 -0.95000000 -0.20000000 0.128349
-0.80000000 0.90000000 0.25000000 0.128359
0.70000000 0.15000000 -0.70000000 0.128415
-0.65000000 0.35000000 -0.75000000 0.128420
0.90000000 -0.95000000 0.10000000 0.128426
1.00000000 0.75000000 0.00000000 0.128433
0.80000000 0.25000000 0.50000000 0.128444
-0.30000000 -0.70000000 -0.80000000 0.128450
0.40000000 0.20000000 -1.00000000 0.128460
-0.90000000 0.95000000 0.05000000 0.128469
-0.05000000 -0.40000000 0.55000000 0.128469
0.80000000 0.85000000 -0.15000000 0.128470
0.75000000 1.00000000 0.00000000 0.128490
0.95000000 0.55000000 0.35000000 0.128494
0.75000000 0.95000000 -0.10000000 0.128494
-0.60000000 0.15000000 0.55000000 0.128509
0.15000000 1.00000000 -0.55000000 0.128511
0.40000000 0.35000000 -0.85000000 0.128513
0.35000000 0.40000000 -0.85000000 0.128523
-0.60000000 -0.05000000 0.55000000 0.128526
0.45000000 0.45000000 -0.75000000 0.128531
-0.55000000 0.25000000 0.55000000 0.128544
-0.55000000 -0.30000000 -0.95000000 0.128549
0.65000000 -0.70000000 -0.55000000 0.128566
0.90000000 -0.05000000 -0.60000000 0.128588
0.60000000 -0.15000000 0.55000000 0.128597
-0.55000000 -0.60000000 -0.75000000 0.128608
-0.95000000 0.90000000 -0.10000000 0.128619
0.60000000 0.05000000 -0.80000000 0.128622
0.90000000 -0.95000000 -0.10000000 0.128623
-0.20000000 -0.30000000 0.55000000 0.128638
-0.50000000 -0.75000000 0.50000000 0.128642
0.50000000 -0.90000000 -0.55000000 0.128644
-0.05000000 0.80000000 -0.65000000 0.128645
0.40000000 -0.40000000 -0.90000000 0.128659
0.45000000 0.75000000 -0.55000000 0.128675
0.85000000 -0.70000000 -0.40000000 0.128700
0.30000000 0.50000000 -0.80000000 0.128700
-0.85000000 0.95000000 0.15000000 0.128709
-0.90000000 -0.60000000 0.45000000 0.128731
-0.55000000 0.30000000 -0.85000000 0.128754
-0.50000000 -0.95000000 -0.60000000 0.128759
-0.80000000 -1.00000000 -0.40000000 0.128760
1.00000000 0.15000000 -0.55000000 0.128767
0.55000000 -0.15000000 -0.85000000 0.128771
-0.10000000 -0.35000000 0.55000000 0.128788
-0.85000000 0.90000000 0.20000000 0.128799
0.20000000 0.40000000 -1.00000000 0.128807
0.30000000 -0.90000000 -0.65000000 0.128813
0.95000000 -0.30000000 -0.55000000 0.128816
-0.60000000 -0.90000000 0.45000000 0.128826
-0.50000000 -0.15000000 0.55000000 0.128828
0.50000000 0.30000000 -0.80000000 0.128832
-0.90000000 0.40000000 -0.60000000 0.128832
0.55000000 -0.45000000 -0.75000000 0.128832
-0.85000000 -0.65000000 -0.55000000 0.128843
-0.30000000 -0.25000000 0.55000000 0.128847
0.75000000 0.45000000 -0.55000000 0.128849
0.85000000 0.15000000 -0.60000000 0.128850
-1.00000000 -0.80000000 -0.40000000 0.128853
0.55000000 -0.55000000 -0.70000000 0.128860
0.05000000 -0.45000000 0.55000000 0.128870
0.60000000 0.10000000 0.55000000 0.128877
-0.85000000 0.85000000 0.25000000 0.128879
0.85000000 -0.50000000 0.45000000 0.128882
0.30000000 0.95000000 0.45000000 0.128884
0.75000000 0.20000000 -0.65000000 0.128888
0.10000000 0.85000000 0.50000000 0.128888
0.80000000 -0.50000000 -0.55000000 0.128905
0.80000000 0.85000000 0.15000000 0.128908
-1.00000000 -0.35000000 -0.65000000 0.128915
-0.30000000 -0.55000000 -0.95000000 0.128923
-0.30000000 0.75000000 -0.65000000 0.128931
-0.95000000 0.00000000 -0.70000000 0.128932
-0.80000000 -0.20000000 -0.75000000 0.128934
0.55000000 -0.25000000 0.55000000 0.128954
-0.45000000 0.35000000 -0.90000000 0.128960
-0.90000000 0.10000000 -0.70000000 0.128962
0.00000000 -0.60000000 -0.95000000 0.128964
-0.40000000 -0.80000000 -0.70000000 0.128978
-0.10000000 -0.75000000 -0.80000000 0.128978
-0.55000000 -0.10000000 0.55000000 0.128979
0.75000000 0.95000000 0.10000000 0.128984
-0.25000000 0.85000000 -0.60000000 0.129017
-0.60000000 -0.10000000 -0.95000000 0.129030
0.50000000 0.30000000 0.55000000 0.129031
-0.65000000 -0.25000000 -0.85000000 0.129037
0.25000000 0.80000000 -0.60000000 0.129037
0.70000000 -0.80000000 0.40000000 0.129038
0.85000000 0.80000000 0.15000000 0.129038
-0.45000000 0.75000000 -0.60000000 0.129052
1.00000000 0.60000000 0.30000000 0.129054
0.45000000 0.20000000 -0.90000000 0.129058
0.30000000 0.70000000 -0.65000000 0.129061
-0.50000000 0.50000000 -0.75000000 0.129064
