//X Y Z Consensus 
0.95000000 -0.25000000 -0.60000000 0.046667
0.35000000 0.45000000 0.95000000 0.046672
0.55000000 0.05000000 1.00000000 0.046675
0.00000000 0.75000000 -0.70000000 0.046677
0.75000000 -0.55000000 0.75000000 0.046678
-0.40000000 0.55000000 0.90000000 0.046686
-1.00000000 0.20000000 -0.70000000 0.046687
-0.50000000 -0.45000000 1.00000000 0.046699
-0.25000000 1.00000000 -0.65000000 0.046700
0.70000000 0.25000000 -0.65000000 0.046704
0.65000000 -0.80000000 0.70000000 0.046705
0.45000000 0.25000000 -0.70000000 0.046720
0.40000000 -0.05000000 -0.70000000 0.046724
-0.70000000 0.80000000 0.65000000 0.046726
-0.50000000 0.20000000 -0.75000000 0.046729
-0.25000000 0.45000000 -0.75000000 0.046735
-0.65000000 0.05000000 1.00000000 0.046735
-0.50000000 0.15000000 -0.75000000 0.046738
0.95000000 -0.45000000 0.70000000 0.046739
0.30000000 0.80000000 -0.65000000 0.046739
-0.45000000 -0.50000000 1.00000000 0.046743
0.60000000 0.20000000 0.90000000 0.046750
-0.85000000 -0.80000000 0.65000000 0.046752
-0.30000000 -0.60000000 1.00000000 0.046765
0.50000000 0.80000000 0.70000000 0.046767
0.45000000 0.15000000 -0.70000000 0.046768
-1.00000000 0.20000000 0.80000000 0.046776
-0.40000000 0.85000000 -0.65000000 0.046781
-0.95000000 1.00000000 -0.35000000 0.046783
0.65000000 -0.30000000 -0.65000000 0.046783
0.90000000 -1.00000000 -0.35000000 0.046785
-0.55000000 -0.90000000 0.75000000 0.046790
-0.05000000 0.40000000 -0.75000000 0.046799
-0.40000000 -0.65000000 0.90000000 0.046808
-0.30000000 0.05000000 -0.75000000 0.046812
0.60000000 0.50000000 0.80000000 0.046814
0.40000000 -0.50000000 0.95000000 0.046820
0.60000000 -0.30000000 0.90000000 0.046822
-0.40000000 0.05000000 -0.75000000 0.046830
0.80000000 0.50000000 0.70000000 0.046830
0.95000000 0.10000000 0.75000000 0.046830
-0.75000000 -0.30000000 -0.70000000 0.046834
-0.40000000 -0.75000000 0.85000000 0.046835
0.50000000 0.60000000 0.80000000 0.046836
0.90000000 -0.80000000 0.55000000 0.046844
-0.65000000 -0.85000000 -0.60000000 0.046846
0.45000000 0.20000000 -0.70000000 0.046848
-0.15000000 0.45000000 -0.75000000 0.046857
0.70000000 -0.25000000 0.85000000 0.046859
-0.60000000 0.70000000 -0.65000000 0.046861
-0.65000000 0.55000000 0.80000000 0.046867
0.10000000 1.00000000 -0.65000000 0.046869
-0.50000000 0.40000000 0.95000000 0.046882
-0.35000000 0.40000000 -0.75000000 0.046887
0.20000000 0.60000000 0.90000000 0.046891
-0.70000000 0.50000000 0.80000000 0.046893
-1.00000000 -0.90000000 0.55000000 0.046895
-0.45000000 0.80000000 0.75000000 0.046897
-0.60000000 -0.40000000 -0.70000000 0.046898
-0.35000000 0.05000000 -0.75000000 0.046913
-0.20000000 0.45000000 -0.75000000 0.046916
-0.40000000 -0.50000000 -0.70000000 0.046918
0.55000000 -0.75000000 -0.60000000 0.046922
-0.45000000 0.30000000 -0.75000000 0.046922
0.50000000 -0.85000000 0.75000000 0.046924
-0.80000000 -0.85000000 -0.55000000 0.046927
-0.35000000 -1.00000000 -0.65000000 0.046927
-0.15000000 0.55000000 1.00000000 0.046929
-0.70000000 -0.60000000 0.80000000 0.046929
0.05000000 -0.45000000 -0.70000000 0.046942
0.20000000 -0.60000000 1.00000000 0.046945
0.55000000 0.30000000 0.90000000 0.046947
-0.80000000 0.20000000 0.85000000 0.046959
0.65000000 0.75000000 -0.55000000 0.046961
-0.70000000 -0.85000000 0.70000000 0.046962
-0.20000000 0.10000000 -0.75000000 0.046966
0.55000000 -0.40000000 0.90000000 0.046971
-0.90000000 -0.20000000 -0.70000000 0.046978
-0.05000000 0.25000000 -0.75000000 0.046981
-0.85000000 -0.15000000 0.85000000 0.046988
-0.85000000 0.90000000 -0.45000000 0.046988
0.05000000 0.55000000 1.00000000 0.046994
-0.65000000 0.30000000 0.90000000 0.046995
0.70000000 0.55000000 -0.60000000 0.046999
-0.45000000 0.70000000 0.80000000 0.047002
0.40000000 -0.65000000 -0.65000000 0.047022
0.90000000 -1.00000000 0.45000000 0.047031
-0.05000000 -0.50000000 -0.70000000 0.047037
0.90000000 -0.30000000 0.75000000 0.047043
-0.55000000 -0.75000000 0.80000000 0.047049
0.30000000 0.55000000 0.90000000 0.047050
-0.80000000 -0.85000000 0.65000000 0.047053
-0.95000000 0.90000000 -0.40000000 0.047060
-0.95000000 -0.50000000 0.75000000 0.047062
-0.70000000 -0.60000000 -0.65000000 0.047068
0.30000000 -0.20000000 -0.70000000 0.047069
0.50000000 -0.30000000 1.00000000 0.047071
0.55000000 0.85000000 0.65000000 0.047085
-0.40000000 0.35000000 -0.75000000 0.047086
-0.45000000 0.10000000 -0.75000000 0.047095
-0.95000000 0.70000000 0.60000000 0.047097
-0.95000000 -0.75000000 -0.55000000 0.047101
0.35000000 0.50000000 -0.70000000 0.047110
0.70000000 -0.85000000 0.65000000 0.047114
0.85000000 -0.55000000 0.70000000 0.047116
0.30000000 1.00000000 0.70000000 0.047125
-0.65000000 -0.25000000 0.95000000 0.047129
1.00000000 0.00000000 0.75000000 0.047132
0.35000000 -0.50000000 1.00000000 0.047143
-0.50000000 0.95000000 -0.60000000 0.047155
-0.05000000 0.35000000 -0.75000000 0.047155
-0.75000000 -0.10000000 0.90000000 0.047156
0.60000000 -0.90000000 -0.55000000 0.047164
0.20000000 0.65000000 -0.70000000 0.047164
0.40000000 0.40000000 0.95000000 0.047167
-0.90000000 0.55000000 0.70000000 0.047176
-0.50000000 -0.45000000 -0.70000000 0.047179
0.40000000 -0.45000000 1.00000000 0.047186
0.85000000 0.55000000 0.65000000 0.047190
-0.15000000 0.15000000 -0.75000000 0.047192
-0.35000000 -0.95000000 0.80000000 0.047195
-0.65000000 0.75000000 0.70000000 0.047195
-0.05000000 0.30000000 -0.75000000 0.047199
-0.15000000 0.75000000 -0.70000000 0.047208
-0.10000000 0.20000000 -0.75000000 0.047210
0.10000000 -0.40000000 -0.70000000 0.047212
-0.15000000 -0.75000000 0.90000000 0.047219
-0.85000000 0.50000000 -0.65000000 0.047221
-0.60000000 0.20000000 1.00000000 0.047222
-0.35000000 0.75000000 0.80000000 0.047232
-0.05000000 0.75000000 -0.70000000 0.047233
-0.90000000 -1.00000000 0.55000000 0.047249
0.70000000 0.50000000 0.75000000 0.047254
0.95000000 0.20000000 -0.60000000 0.047257
0.50000000 0.70000000 0.75000000 0.047262
0.85000000 -0.35000000 -0.60000000 0.047262
-0.70000000 0.20000000 0.90000000 0.047266
1.00000000 1.00000000 0.10000000 0.047270
0.55000000 0.55000000 0.80000000 0.047270
-0.95000000 0.45000000 -0.65000000 0.047272
-0.85000000 -0.50000000 -0.65000000 0.047277
-0.85000000 0.05000000 0.85000000 0.047277
0.50000000 0.90000000 0.65000000 0.047277
0.50000000 0.20000000 1.00000000 0.047284
0.85000000 -0.85000000 0.55000000 0.047289
0.90000000 1.00000000 -0.20000000 0.047289
0.85000000 0.95000000 0.35000000 0.047291
-0.95000000 0.20000000 -0.70000000 0.047295
-0.95000000 0.40000000 0.75000000 0.047295
0.70000000 0.80000000 -0.50000000 0.047295
0.25000000 -0.25000000 -0.70000000 0.047296
-0.50000000 0.60000000 -0.70000000 0.047304
1.00000000 -0.10000000 0.75000000 0.047304
-0.65000000 -0.10000000 1.00000000 0.047311
-0.75000000 0.00000000 0.90000000 0.047317
0.95000000 -0.20000000 0.75000000 0.047324
-0.30000000 0.50000000 1.00000000 0.047324
-0.25000000 0.10000000 -0.75000000 0.047329
-0.65000000 -0.65000000 0.80000000 0.047335
-0.10000000 0.40000000 -0.75000000 0.047341
0.35000000 0.75000000 -0.65000000 0.047343
0.40000000 0.40000000 -0.70000000 0.047347
-0.60000000 -0.70000000 0.80000000 0.047354
0.15000000 -0.35000000 -0.70000000 0.047355
1.00000000 0.90000000 -0.20000000 0.047359
0.70000000 0.90000000 -0.45000000 0.047361
-0.30000000 -0.70000000 0.90000000 0.047366
0.40000000 0.00000000 -0.70000000 0.047367
0.35000000 -0.70000000 -0.65000000 0.047367
0.50000000 0.60000000 -0.65000000 0.047371
0.70000000 -0.15000000 -0.65000000 0.047380
0.20000000 -0.30000000 -0.70000000 0.047384
-0.80000000 -0.70000000 -0.60000000 0.047394
1.00000000 -0.20000000 -0.60000000 0.047394
-0.10000000 -0.65000000 1.00000000 0.047397
1.00000000 1.00000000 -0.05000000 0.047398
-0.15000000 0.95000000 0.75000000 0.047403
0.70000000 -0.55000000 -0.60000000 0.047403
-0.45000000 0.25000000 -0.75000000 0.047404
0.05000000 -0.75000000 0.90000000 0.047409
-0.10000000 0.75000000 -0.70000000 0.047412
-0.20000000 -0.85000000 0.85000000 0.047418
0.00000000 -0.65000000 1.00000000 0.047426
0.30000000 -0.65000000 0.90000000 0.047430
0.95000000 0.85000000 0.35000000 0.047435
-1.00000000 -0.15000000 -0.70000000 0.047436
0.55000000 -0.10000000 1.00000000 0.047437
-0.50000000 0.35000000 1.00000000 0.047438
0.55000000 -0.95000000 0.70000000 0.047442
0.35000000 -0.10000000 -0.70000000 0.047447
-0.10000000 -0.50000000 -0.70000000 0.047450
-0.45000000 0.15000000 -0.75000000 0.047452
-0.45000000 0.40000000 1.00000000 0.047458
-0.45000000 0.60000000 0.85000000 0.047458
-0.40000000 0.10000000 -0.75000000 0.047461
-0.30000000 0.40000000 -0.75000000 0.047462
0.55000000 0.00000000 1.00000000 0.047465
-0.35000000 -0.50000000 -0.70000000 0.047465
0.90000000 0.50000000 0.65000000 0.047471
-0.65000000 0.00000000 1.00000000 0.047474
-0.80000000 -0.25000000 -0.70000000 0.047479
-0.85000000 -0.95000000 -0.50000000 0.047483
0.30000000 -0.90000000 0.80000000 0.047485
-0.75000000 -0.05000000 0.90000000 0.047497
0.20000000 0.50000000 1.00000000 0.047497
0.35000000 -0.85000000 0.80000000 0.047498
-0.85000000 -0.80000000 -0.55000000 0.047503
-0.25000000 -0.65000000 0.95000000 0.047506
-0.20000000 0.80000000 0.80000000 0.047512
0.55000000 -0.45000000 -0.65000000 0.047514
1.00000000 -0.05000000 0.75000000 0.047516
0.80000000 0.40000000 -0.60000000 0.047522
0.55000000 -0.25000000 0.95000000 0.047524
0.60000000 0.80000000 0.65000000 0.047526
-0.85000000 1.00000000 0.45000000 0.047532
-0.55000000 0.95000000 0.65000000 0.047540
-0.35000000 -0.95000000 -0.65000000 0.047545
-0.30000000 0.10000000 -0.75000000 0.047551
-0.45000000 0.20000000 -0.75000000 0.047568
0.80000000 0.60000000 0.65000000 0.047572
0.05000000 0.95000000 0.75000000 0.047576
0.00000000 -0.45000000 -0.70000000 0.047581
-1.00000000 0.75000000 -0.50000000 0.047584
-1.00000000 -0.45000000 -0.65000000 0.047585
0.60000000 0.80000000 -0.55000000 0.047594
0.55000000 0.15000000 0.95000000 0.047594
0.20000000 -0.90000000 -0.65000000 0.047595
-0.50000000 -1.00000000 0.75000000 0.047602
-0.35000000 0.10000000 -0.75000000 0.047604
-1.00000000 0.95000000 -0.35000000 0.047609
-0.60000000 -0.35000000 0.95000000 0.047610
1.00000000 0.30000000 0.70000000 0.047621
-0.10000000 0.25000000 -0.75000000 0.047624
-0.20000000 0.15000000 -0.75000000 0.047648
-0.25000000 0.55000000 0.95000000 0.047649
0.90000000 0.60000000 -0.50000000 0.047652
0.40000000 0.35000000 1.00000000 0.047660
0.70000000 0.35000000 0.80000000 0.047661
-0.65000000 0.95000000 0.60000000 0.047665
-0.65000000 -0.05000000 1.00000000 0.047667
0.35000000 0.70000000 0.80000000 0.047672
0.90000000 0.25000000 -0.60000000 0.047673
0.30000000 0.55000000 -0.70000000 0.047674
-0.65000000 -0.35000000 -0.70000000 0.047674
-0.05000000 -0.65000000 1.00000000 0.047683
0.10000000 0.70000000 -0.70000000 0.047685
-0.15000000 0.40000000 -0.75000000 0.047694
-0.65000000 0.15000000 0.95000000 0.047695
0.35000000 0.40000000 1.00000000 0.047696
0.35000000 0.80000000 0.75000000 0.047697
0.90000000 1.00000000 0.25000000 0.047697
0.45000000 -0.90000000 -0.60000000 0.047701
0.25000000 0.60000000 -0.70000000 0.047703
0.30000000 -0.75000000 0.85000000 0.047718
0.15000000 -0.65000000 0.95000000 0.047720
0.55000000 -0.05000000 1.00000000 0.047721
-0.70000000 -0.45000000 0.85000000 0.047730
0.25000000 0.75000000 0.80000000 0.047735
-0.10000000 0.35000000 -0.75000000 0.047740
0.10000000 0.80000000 0.80000000 0.047744
-0.15000000 -0.50000000 -0.70000000 0.047746
-0.75000000 0.70000000 -0.60000000 0.047747
0.40000000 0.70000000 -0.65000000 0.047748
0.30000000 -0.75000000 -0.65000000 0.047749
-0.15000000 0.20000000 -0.75000000 0.047757
1.00000000 0.15000000 -0.60000000 0.047760
-0.40000000 0.30000000 -0.75000000 0.047767
-0.10000000 0.55000000 1.00000000 0.047771
-0.25000000 0.40000000 -0.75000000 0.047774
-0.90000000 -0.65000000 0.70000000 0.047777
-0.65000000 0.65000000 0.75000000 0.047790
0.45000000 0.65000000 -0.65000000 0.047790
-0.35000000 0.35000000 -0.75000000 0.047795
0.70000000 0.20000000 -0.65000000 0.047796
-0.30000000 -0.50000000 -0.70000000 0.047797
0.00000000 0.55000000 1.00000000 0.047804
0.75000000 0.25000000 0.80000000 0.047806
-0.90000000 0.70000000 -0.55000000 0.047806
0.65000000 0.35000000 -0.65000000 0.047812
0.15000000 0.55000000 0.95000000 0.047813
-0.10000000 0.30000000 -0.75000000 0.047817
0.20000000 -0.70000000 0.90000000 0.047818
0.80000000 0.35000000 0.75000000 0.047821
-0.90000000 -0.85000000 0.60000000 0.047823
0.60000000 -0.60000000 0.80000000 0.047831
0.60000000 0.45000000 -0.65000000 0.047840
-0.20000000 0.40000000 -0.75000000 0.047844
0.10000000 -0.85000000 0.85000000 0.047846
-0.30000000 -0.80000000 0.85000000 0.047849
1.00000000 0.90000000 0.25000000 0.047850
-0.90000000 0.60000000 -0.60000000 0.047852
-0.95000000 -0.15000000 -0.70000000 0.047854
1.00000000 -0.80000000 -0.40000000 0.047854
-0.85000000 -0.10000000 0.85000000 0.047861
-0.90000000 -0.35000000 0.80000000 0.047868
-0.35000000 -0.60000000 0.95000000 0.047896
1.00000000 0.55000000 -0.50000000 0.047899
0.30000000 -0.15000000 -0.70000000 0.047905
-0.40000000 0.15000000 -0.75000000 0.047911
-0.45000000 -0.80000000 -0.65000000 0.047911
-0.95000000 -0.30000000 0.80000000 0.047912
0.85000000 -0.95000000 0.50000000 0.047913
-0.20000000 -0.50000000 -0.70000000 0.047914
-0.95000000 0.95000000 0.40000000 0.047921
0.60000000 0.35000000 0.85000000 0.047925
-0.65000000 0.65000000 -0.65000000 0.047933
0.40000000 -0.80000000 0.80000000 0.047934
-0.25000000 -0.50000000 -0.70000000 0.047938
0.40000000 0.05000000 -0.70000000 0.047939
0.05000000 -0.40000000 -0.70000000 0.047942
-0.35000000 0.85000000 0.75000000 0.047948
-0.75000000 0.75000000 0.65000000 0.047960
-0.25000000 0.15000000 -0.75000000 0.047974
-0.85000000 0.75000000 0.60000000 0.047987
0.35000000 0.95000000 -0.60000000 0.047990
0.35000000 0.60000000 0.85000000 0.047992
-0.25000000 0.90000000 0.75000000 0.048002
-0.70000000 0.85000000 -0.55000000 0.048006
-0.85000000 0.00000000 0.85000000 0.048012
0.80000000 0.10000000 0.80000000 0.048023
-0.35000000 0.65000000 0.85000000 0.048030
-0.45000000 0.80000000 -0.65000000 0.048031
0.65000000 0.75000000 0.65000000 0.048034
-0.30000000 0.70000000 -0.70000000 0.048041
-0.25000000 0.95000000 -0.65000000 0.048044
0.75000000 0.65000000 0.65000000 0.048050
-0.10000000 -0.75000000 0.90000000 0.048052
-0.50000000 -0.75000000 -0.65000000 0.048054
-0.45000000 -0.45000000 -0.70000000 0.048064
-0.05000000 0.55000000 1.00000000 0.048065
0.85000000 0.80000000 -0.40000000 0.048084
-0.85000000 -0.20000000 -0.70000000 0.048086
-0.60000000 -0.45000000 0.90000000 0.048098
0.85000000 -0.70000000 -0.50000000 0.048103
0.10000000 0.95000000 -0.65000000 0.048105
-0.40000000 0.25000000 -0.75000000 0.048106
-0.85000000 -0.90000000 0.60000000 0.048111
0.55000000 0.75000000 0.70000000 0.048112
-0.90000000 0.85000000 0.50000000 0.048116
0.70000000 -0.90000000 -0.50000000 0.048123
-0.05000000 -0.45000000 -0.70000000 0.048129
-0.40000000 -0.85000000 -0.65000000 0.048131
0.75000000 0.55000000 0.70000000 0.048131
-0.35000000 0.15000000 -0.75000000 0.048133
-0.15000000 0.25000000 -0.75000000 0.048139
-0.40000000 0.20000000 -0.75000000 0.048140
-0.30000000 0.15000000 -0.75000000 0.048145
0.00000000 -0.75000000 0.90000000 0.048148
-0.55000000 -0.40000000 -0.70000000 0.048149
-0.15000000 0.35000000 -0.75000000 0.048157
-0.20000000 0.70000000 0.85000000 0.048159
0.10000000 -0.35000000 -0.70000000 0.048164
0.25000000 -0.20000000 -0.70000000 0.048165
-0.55000000 0.55000000 -0.70000000 0.048165
-0.20000000 0.20000000 -0.75000000 0.048177
-1.00000000 -0.80000000 0.60000000 0.048183
-0.75000000 -0.55000000 -0.65000000 0.048187
0.70000000 0.95000000 0.50000000 0.048193
0.35000000 -0.05000000 -0.70000000 0.048195
0.65000000 -0.80000000 -0.55000000 0.048196
0.70000000 -0.10000000 -0.65000000 0.048196
0.25000000 -0.95000000 0.80000000 0.048200
-0.85000000 -0.05000000 0.85000000 0.048206
-1.00000000 0.75000000 0.55000000 0.048208
1.00000000 -0.55000000 0.65000000 0.048223
0.40000000 0.35000000 -0.70000000 0.048233
-0.30000000 0.35000000 -0.75000000 0.048234
0.50000000 -0.35000000 0.95000000 0.048239
0.25000000 -0.60000000 0.95000000 0.048240
0.25000000 -0.80000000 -0.65000000 0.048244
0.70000000 0.70000000 0.65000000 0.048248
0.65000000 -0.25000000 -0.65000000 0.048252
0.60000000 -0.35000000 -0.65000000 0.048261
0.60000000 -0.45000000 0.85000000 0.048266
-1.00000000 0.15000000 -0.70000000 0.048267
0.95000000 -0.90000000 -0.35000000 0.048268
0.15000000 -0.30000000 -0.70000000 0.048274
-0.40000000 0.65000000 -0.70000000 0.048276
-0.95000000 -0.45000000 -0.65000000 0.048276
0.20000000 -0.25000000 -0.70000000 0.048278
-0.85000000 0.25000000 -0.70000000 0.048284
-0.15000000 0.30000000 -0.75000000 0.048289
-0.75000000 -0.90000000 -0.55000000 0.048302
0.50000000 -0.80000000 -0.60000000 0.048305
0.80000000 -0.40000000 -0.60000000 0.048306
-0.90000000 -0.75000000 0.65000000 0.048311
0.65000000 0.60000000 -0.60000000 0.048312
-0.60000000 0.25000000 0.95000000 0.048314
-0.80000000 0.30000000 -0.70000000 0.048315
-0.35000000 0.50000000 0.95000000 0.048317
-0.70000000 0.35000000 0.85000000 0.048328
-0.35000000 0.30000000 -0.75000000 0.048334
0.80000000 0.85000000 -0.40000000 0.048337
0.50000000 -0.50000000 -0.65000000 0.048337
-0.10000000 0.95000000 0.75000000 0.048341
-0.70000000 -0.30000000 -0.70000000 0.048352
-0.20000000 1.00000000 -0.65000000 0.048353
0.10000000 0.70000000 0.85000000 0.048353
-0.80000000 0.95000000 0.50000000 0.048353
0.70000000 0.10000000 0.85000000 0.048363
0.15000000 0.90000000 -0.65000000 0.048363
-0.05000000 -0.75000000 0.90000000 0.048365
0.70000000 -0.45000000 0.80000000 0.048375
0.15000000 0.90000000 0.75000000 0.048376
0.95000000 0.05000000 0.75000000 0.048377
0.65000000 0.25000000 0.85000000 0.048379
0.80000000 -0.20000000 0.80000000 0.048382
-0.95000000 -0.85000000 -0.50000000 0.048384
0.95000000 0.70000000 0.50000000 0.048385
0.15000000 -1.00000000 -0.65000000 0.048386
-0.90000000 0.25000000 0.80000000 0.048389
-0.20000000 0.35000000 -0.75000000 0.048392
-0.80000000 0.85000000 -0.50000000 0.048393
-0.95000000 0.20000000 0.80000000 0.048399
-0.45000000 -0.60000000 0.90000000 0.048406
0.75000000 -0.35000000 0.80000000 0.048416
0.50000000 0.25000000 0.95000000 0.048420
0.40000000 0.10000000 -0.70000000 0.048421
-0.25000000 0.35000000 -0.75000000 0.048425
0.45000000 -0.90000000 0.75000000 0.048425
0.00000000 0.95000000 0.75000000 0.048428
0.25000000 0.65000000 0.85000000 0.048446
0.65000000 0.55000000 0.75000000 0.048450
-0.75000000 0.80000000 -0.55000000 0.048450
-0.25000000 0.20000000 -0.75000000 0.048452
-0.90000000 0.20000000 -0.70000000 0.048454
-0.35000000 0.20000000 -0.75000000 0.048460
0.55000000 0.65000000 0.75000000 0.048461
0.45000000 -0.75000000 0.80000000 0.048462
0.05000000 1.00000000 -0.65000000 0.048469
-1.00000000 0.60000000 0.65000000 0.048472
-0.75000000 0.35000000 -0.70000000 0.048483
0.80000000 -0.75000000 -0.50000000 0.048485
-0.55000000 -0.70000000 -0.65000000 0.048495
0.60000000 -0.85000000 0.70000000 0.048508
-0.20000000 0.25000000 -0.75000000 0.048510
-0.45000000 -0.70000000 0.85000000 0.048511
0.55000000 0.85000000 -0.55000000 0.048523
0.20000000 -0.80000000 0.85000000 0.048524
0.65000000 0.85000000 -0.50000000 0.048529
-0.30000000 0.90000000 -0.65000000 0.048531
-0.35000000 0.25000000 -0.75000000 0.048542
0.25000000 0.85000000 0.75000000 0.048547
0.65000000 -0.60000000 -0.60000000 0.048554
-0.30000000 0.20000000 -0.75000000 0.048555
0.70000000 0.15000000 -0.65000000 0.048562
0.80000000 -0.60000000 0.70000000 0.048563
-0.70000000 0.70000000 0.70000000 0.048565
0.25000000 0.50000000 0.95000000 0.048569
0.70000000 -0.20000000 0.85000000 0.048569
-0.90000000 0.85000000 -0.45000000 0.048577
-0.85000000 -0.40000000 0.80000000 0.048579
-0.10000000 -0.45000000 -0.70000000 0.048586
0.95000000 -0.20000000 -0.60000000 0.048587
0.00000000 -0.40000000 -0.70000000 0.048593
-0.60000000 -0.90000000 -0.60000000 0.048597
-0.20000000 0.30000000 -0.75000000 0.048598
0.55000000 -0.65000000 0.80000000 0.048617
-1.00000000 0.50000000 0.70000000 0.048624
-0.60000000 0.50000000 -0.70000000 0.048636
-0.45000000 0.50000000 0.90000000 0.048640
-0.30000000 0.30000000 -0.75000000 0.048645
-0.90000000 -0.15000000 -0.70000000 0.048646
0.95000000 -0.90000000 0.45000000 0.048661
-0.70000000 0.60000000 0.75000000 0.048663
0.70000000 -0.60000000 0.75000000 0.048673
-0.70000000 0.40000000 -0.70000000 0.048680
-0.05000000 0.95000000 0.75000000 0.048686
0.35000000 0.45000000 -0.70000000 0.048692
-0.40000000 -0.45000000 -0.70000000 0.048696
0.65000000 -0.35000000 0.85000000 0.048696
-0.45000000 0.90000000 0.70000000 0.048710
-0.25000000 0.25000000 -0.75000000 0.048717
0.30000000 -0.10000000 -0.70000000 0.048719
0.95000000 -0.15000000 0.75000000 0.048721
-0.25000000 0.30000000 -0.75000000 0.048724
1.00000000 1.00000000 0.05000000 0.048724
-1.00000000 -0.10000000 -0.70000000 0.048730
-0.35000000 -0.90000000 -0.65000000 0.048731
-0.30000000 0.25000000 -0.75000000 0.048737
1.00000000 -0.65000000 0.60000000 0.048740
-0.80000000 -0.25000000 0.85000000 0.048762
-0.40000000 0.95000000 0.70000000 0.048764
-0.60000000 0.35000000 0.90000000 0.048767
0.40000000 0.30000000 -0.70000000 0.048769
0.50000000 -0.70000000 0.80000000 0.048773
-0.65000000 0.45000000 -0.70000000 0.048774
1.00000000 1.00000000 0.00000000 0.048774
0.70000000 -0.05000000 -0.65000000 0.048777
0.40000000 0.15000000 -0.70000000 0.048785
0.45000000 0.95000000 0.65000000 0.048791
-0.65000000 0.90000000 -0.55000000 0.048796
-0.80000000 0.95000000 -0.45000000 0.048820
-0.95000000 0.15000000 -0.70000000 0.048827
-0.75000000 0.90000000 -0.50000000 0.048830
0.15000000 -0.95000000 -0.65000000 0.048839
1.00000000 -0.40000000 0.70000000 0.048849
0.85000000 0.25000000 0.75000000 0.048853
-0.70000000 0.60000000 -0.65000000 0.048861
-0.15000000 -0.85000000 0.85000000 0.048861
0.65000000 1.00000000 -0.45000000 0.048868
0.60000000 0.60000000 0.75000000 0.048874
-1.00000000 -0.60000000 0.70000000 0.048879
0.80000000 -0.45000000 0.75000000 0.048879
-0.15000000 0.80000000 0.80000000 0.048883
1.00000000 -0.15000000 -0.60000000 0.048887
0.80000000 0.95000000 0.40000000 0.048888
-0.70000000 1.00000000 -0.50000000 0.048890
0.20000000 -0.85000000 -0.65000000 0.048896
0.05000000 -0.35000000 -0.70000000 0.048899
0.35000000 0.00000000 -0.70000000 0.048901
0.85000000 0.30000000 -0.60000000 0.048909
-0.95000000 -1.00000000 -0.45000000 0.048913
0.75000000 -1.00000000 -0.45000000 0.048914
0.90000000 0.15000000 0.75000000 0.048917
0.45000000 -0.55000000 -0.65000000 0.048926
-0.75000000 -0.25000000 -0.70000000 0.048927
-0.60000000 1.00000000 -0.55000000 0.048929
0.50000000 -0.45000000 0.90000000 0.048940
1.00000000 -0.95000000 0.40000000 0.048940
-1.00000000 -0.25000000 0.80000000 0.048942
-0.15000000 -0.45000000 -0.70000000 0.048945
0.90000000 -0.25000000 -0.60000000 0.048959
0.50000000 0.35000000 0.90000000 0.048977
-0.25000000 0.60000000 0.90000000 0.048978
0.05000000 0.70000000 -0.70000000 0.048979
-0.30000000 -1.00000000 0.80000000 0.048986
0.40000000 0.20000000 -0.70000000 0.048994
0.40000000 0.25000000 -0.70000000 0.049006
-0.70000000 -0.25000000 0.90000000 0.049006
0.90000000 -0.85000000 -0.40000000 0.049006
-0.60000000 -0.35000000 -0.70000000 0.049017
0.25000000 -0.15000000 -0.70000000 0.049019
0.70000000 0.10000000 -0.65000000 0.049024
0.55000000 0.95000000 0.60000000 0.049032
0.90000000 -0.65000000 -0.50000000 0.049035
0.60000000 0.15000000 0.90000000 0.049037
0.05000000 0.80000000 0.80000000 0.049039
0.35000000 0.50000000 0.90000000 0.049046
0.20000000 0.85000000 -0.65000000 0.049066
-0.65000000 -0.20000000 0.95000000 0.049073
0.95000000 0.80000000 0.40000000 0.049074
0.15000000 0.65000000 -0.70000000 0.049074
-0.75000000 -0.35000000 0.85000000 0.049080
0.85000000 -0.75000000 0.60000000 0.049084
0.60000000 0.70000000 0.70000000 0.049085
0.10000000 -0.30000000 -0.70000000 0.049086
-0.55000000 -0.50000000 0.90000000 0.049088
0.70000000 0.60000000 0.70000000 0.049088
0.95000000 0.15000000 -0.60000000 0.049088
-0.60000000 -0.25000000 1.00000000 0.049096
-0.35000000 -0.45000000 -0.70000000 0.049097
0.60000000 -0.25000000 0.90000000 0.049100
-0.85000000 0.30000000 0.80000000 0.049105
-0.30000000 -1.00000000 -0.65000000 0.049106
0.95000000 0.45000000 0.65000000 0.049107
-0.75000000 0.55000000 0.75000000 0.049109
0.70000000 0.00000000 -0.65000000 0.049115
0.95000000 1.00000000 0.15000000 0.049125
0.35000000 -0.60000000 0.90000000 0.049128
-1.00000000 -0.95000000 -0.45000000 0.049138
0.75000000 0.80000000 0.55000000 0.049143
-0.50000000 -0.40000000 -0.70000000 0.049144
-0.80000000 -1.00000000 0.60000000 0.049149
-0.95000000 -0.10000000 -0.70000000 0.049149
0.05000000 -0.85000000 0.85000000 0.049155
0.20000000 -0.20000000 -0.70000000 0.049157
0.85000000 -0.55000000 -0.55000000 0.049157
0.40000000 -1.00000000 0.75000000 0.049161
-0.60000000 -0.65000000 -0.65000000 0.049161
0.95000000 -0.75000000 0.55000000 0.049161
1.00000000 0.10000000 -0.60000000 0.049167
0.80000000 0.75000000 0.55000000 0.049168
-0.05000000 -0.40000000 -0.70000000 0.049170
0.15000000 -0.25000000 -0.70000000 0.049172
-0.50000000 -0.55000000 0.90000000 0.049192
0.15000000 0.60000000 0.90000000 0.049193
-0.20000000 -0.45000000 -0.70000000 0.049195
1.00000000 0.95000000 0.15000000 0.049199
0.70000000 0.05000000 -0.65000000 0.049203
0.95000000 1.00000000 -0.10000000 0.049207
-0.55000000 -0.35000000 1.00000000 0.049210
-0.65000000 -0.90000000 0.70000000 0.049213
-0.75000000 -0.90000000 0.65000000 0.049221
-0.65000000 -0.50000000 0.85000000 0.049246
0.60000000 0.65000000 -0.60000000 0.049250
-0.25000000 -0.60000000 1.00000000 0.049261
-0.90000000 0.45000000 -0.65000000 0.049268
1.00000000 0.95000000 -0.10000000 0.049270
0.95000000 0.55000000 0.60000000 0.049277
-0.50000000 -0.95000000 0.75000000 0.049285
-0.25000000 0.70000000 -0.70000000 0.049293
-0.80000000 0.15000000 0.85000000 0.049294
-0.30000000 -0.45000000 -0.70000000 0.049295
-0.25000000 -0.45000000 -0.70000000 0.049319
0.75000000 0.95000000 0.45000000 0.049328
0.40000000 -0.60000000 -0.65000000 0.049330
-0.50000000 0.55000000 0.85000000 0.049339
-0.35000000 -0.55000000 1.00000000 0.049347
-1.00000000 0.10000000 -0.70000000 0.049348
-0.80000000 0.50000000 0.75000000 0.049353
0.95000000 0.00000000 0.75000000 0.049361
-1.00000000 -0.60000000 -0.60000000 0.049378
-1.00000000 0.15000000 0.80000000 0.049378
0.15000000 -0.60000000 1.00000000 0.049386
-0.80000000 -0.20000000 -0.70000000 0.049392
0.80000000 0.05000000 0.80000000 0.049398
-0.80000000 0.65000000 -0.60000000 0.049399
0.75000000 0.45000000 -0.60000000 0.049399
0.55000000 -0.20000000 0.95000000 0.049401
0.95000000 0.95000000 -0.15000000 0.049421
-0.20000000 -0.65000000 0.95000000 0.049421
0.95000000 0.65000000 -0.45000000 0.049422
1.00000000 -0.60000000 -0.50000000 0.049433
-0.85000000 -0.65000000 -0.60000000 0.049437
0.65000000 0.65000000 0.70000000 0.049437
-0.85000000 1.00000000 -0.40000000 0.049448
0.55000000 0.10000000 0.95000000 0.049453
0.90000000 -0.70000000 0.60000000 0.049455
0.55000000 -0.40000000 -0.65000000 0.049458
0.65000000 0.30000000 -0.65000000 0.049467
0.85000000 -0.65000000 0.65000000 0.049468
0.90000000 -0.60000000 0.65000000 0.049469
0.80000000 -0.60000000 -0.55000000 0.049482
-0.15000000 0.70000000 0.85000000 0.049483
-0.15000000 1.00000000 -0.65000000 0.049483
0.70000000 -1.00000000 0.60000000 0.049493
-0.50000000 0.75000000 -0.65000000 0.049493
0.65000000 -0.20000000 -0.65000000 0.049506
0.35000000 -0.70000000 0.85000000 0.049511
0.30000000 -0.05000000 -0.70000000 0.049512
0.95000000 0.75000000 0.45000000 0.049528
1.00000000 -0.45000000 -0.55000000 0.049528
-0.80000000 -0.60000000 0.75000000 0.049530
-0.65000000 0.10000000 0.95000000 0.049534
-0.50000000 0.75000000 0.75000000 0.049535
0.95000000 -0.10000000 0.75000000 0.049538
1.00000000 0.40000000 -0.55000000 0.049541
-0.80000000 0.70000000 0.65000000 0.049550
0.00000000 1.00000000 -0.65000000 0.049551
0.35000000 0.05000000 -0.70000000 0.049553
0.95000000 0.95000000 0.20000000 0.049557
-0.50000000 0.65000000 0.80000000 0.049561
0.55000000 0.50000000 -0.65000000 0.049566
0.50000000 -0.25000000 1.00000000 0.049567
0.00000000 -0.35000000 -0.70000000 0.049569
0.90000000 -0.25000000 0.75000000 0.049569
0.10000000 -0.65000000 0.95000000 0.049575
-0.20000000 0.55000000 0.95000000 0.049577
-0.70000000 0.15000000 0.90000000 0.049577
0.25000000 -0.55000000 1.00000000 0.049585
0.30000000 0.95000000 0.70000000 0.049588
0.85000000 -0.80000000 -0.45000000 0.049592
-0.90000000 -0.45000000 -0.65000000 0.049594
-1.00000000 -0.05000000 -0.70000000 0.049595
0.75000000 -0.45000000 -0.60000000 0.049602
-1.00000000 1.00000000 0.35000000 0.049603
0.30000000 0.50000000 -0.70000000 0.049610
0.35000000 -0.65000000 -0.65000000 0.049613
0.05000000 0.70000000 0.85000000 0.049614
-0.80000000 -0.50000000 -0.65000000 0.049614
0.60000000 -0.65000000 -0.60000000 0.049619
0.90000000 -0.95000000 -0.35000000 0.049634
0.90000000 -0.50000000 -0.55000000 0.049636
0.80000000 -0.15000000 0.80000000 0.049648
-0.85000000 -0.55000000 0.75000000 0.049649
-0.50000000 0.45000000 0.90000000 0.049651
0.35000000 0.90000000 0.70000000 0.049660
0.70000000 0.05000000 0.85000000 0.049662
-0.65000000 -0.35000000 0.90000000 0.049663
-0.95000000 0.75000000 -0.50000000 0.049666
-0.55000000 -0.40000000 0.95000000 0.049668
-0.30000000 -0.95000000 -0.65000000 0.049670
-0.10000000 -0.40000000 -0.70000000 0.049671
-0.60000000 0.15000000 1.00000000 0.049672
-0.35000000 0.85000000 -0.65000000 0.049674
-0.20000000 0.95000000 -0.65000000 0.049677
-0.55000000 0.40000000 0.90000000 0.049684
0.70000000 0.85000000 0.55000000 0.049697
-1.00000000 -0.70000000 0.65000000 0.049699
0.10000000 0.55000000 0.95000000 0.049703
0.15000000 -0.90000000 -0.65000000 0.049707
0.05000000 0.95000000 -0.65000000 0.049712
-0.50000000 -0.65000000 0.85000000 0.049722
-0.75000000 -0.65000000 0.75000000 0.049723
-0.75000000 0.25000000 0.85000000 0.049729
-0.85000000 0.45000000 0.75000000 0.049733
-0.85000000 -0.15000000 -0.70000000 0.049734
-0.10000000 0.80000000 0.80000000 0.049735
-0.75000000 0.55000000 -0.65000000 0.049736
-0.80000000 -0.45000000 0.80000000 0.049742
0.85000000 -0.35000000 0.75000000 0.049744
-0.75000000 0.65000000 0.70000000 0.049745
0.50000000 0.15000000 1.00000000 0.049745
0.95000000 -0.05000000 0.75000000 0.049753
1.00000000 -0.80000000 0.50000000 0.049755
-0.65000000 0.40000000 0.85000000 0.049755
-0.65000000 -0.30000000 -0.70000000 0.049759
0.45000000 -0.35000000 1.00000000 0.049760
-0.45000000 0.60000000 -0.70000000 0.049762
1.00000000 -0.95000000 -0.30000000 0.049770
0.90000000 0.75000000 -0.40000000 0.049773
-0.10000000 -0.85000000 0.85000000 0.049773
0.55000000 0.70000000 -0.60000000 0.049774
-0.25000000 -0.70000000 0.90000000 0.049774
0.85000000 0.70000000 0.55000000 0.049781
0.70000000 -0.15000000 0.85000000 0.049806
-0.95000000 -0.90000000 0.55000000 0.049812
0.00000000 0.80000000 0.80000000 0.049813
0.05000000 -0.30000000 -0.70000000 0.049834
0.35000000 0.40000000 -0.70000000 0.049840
-0.50000000 0.85000000 0.70000000 0.049845
-0.40000000 -0.55000000 0.95000000 0.049845
0.30000000 -0.70000000 -0.65000000 0.049853
0.95000000 -1.00000000 0.40000000 0.049854
0.20000000 0.60000000 -0.70000000 0.049855
0.55000000 0.40000000 0.85000000 0.049861
-0.25000000 0.50000000 1.00000000 0.049864
0.25000000 -0.10000000 -0.70000000 0.049864
-0.95000000 0.10000000 -0.70000000 0.049864
0.20000000 -1.00000000 0.80000000 0.049872
0.90000000 0.20000000 -0.60000000 0.049874
0.60000000 -0.30000000 -0.65000000 0.049877
-0.45000000 -0.40000000 -0.70000000 0.049879
0.85000000 -0.30000000 -0.60000000 0.049884
-0.90000000 0.15000000 -0.70000000 0.049894
0.40000000 0.55000000 0.85000000 0.049910
1.00000000 -0.10000000 -0.60000000 0.049918
0.00000000 -0.85000000 0.85000000 0.049923
-1.00000000 0.05000000 -0.70000000 0.049924
-0.55000000 0.25000000 1.00000000 0.049932
-0.80000000 0.75000000 -0.55000000 0.049934
0.00000000 0.70000000 -0.70000000 0.049934
-0.90000000 -0.10000000 -0.70000000 0.049944
0.45000000 -0.50000000 0.90000000 0.049960
0.50000000 0.75000000 -0.60000000 0.049967
0.25000000 0.80000000 -0.65000000 0.049989
-0.70000000 -0.70000000 0.75000000 0.049995
0.10000000 -0.25000000 -0.70000000 0.049996
-0.65000000 -0.60000000 -0.65000000 0.049996
0.75000000 -0.80000000 -0.50000000 0.049997
-1.00000000 0.00000000 -0.70000000 0.050001
0.90000000 0.35000000 0.70000000 0.050004
-0.90000000 1.00000000 0.40000000 0.050005
0.40000000 -0.55000000 0.90000000 0.050008
0.15000000 0.50000000 1.00000000 0.050010
-0.85000000 0.80000000 -0.50000000 0.050010
0.40000000 -1.00000000 -0.60000000 0.050012
-0.70000000 -1.00000000 -0.55000000 0.050015
0.25000000 0.55000000 -0.70000000 0.050021
-0.95000000 -0.05000000 -0.70000000 0.050024
-0.70000000 1.00000000 0.55000000 0.050025
0.45000000 0.80000000 -0.60000000 0.050031
0.20000000 -0.15000000 -0.70000000 0.050032
0.45000000 0.40000000 0.90000000 0.050035
-0.90000000 -0.75000000 -0.55000000 0.050041
-0.35000000 0.45000000 1.00000000 0.050042
-0.05000000 0.80000000 0.80000000 0.050047
-0.90000000 -0.95000000 0.55000000 0.050051
0.40000000 0.45000000 0.90000000 0.050059
-0.85000000 0.20000000 -0.70000000 0.050062
0.15000000 -0.20000000 -0.70000000 0.050065
-0.10000000 1.00000000 -0.65000000 0.050066
-0.45000000 1.00000000 -0.60000000 0.050070
-0.35000000 0.55000000 0.90000000 0.050077
0.95000000 0.30000000 0.70000000 0.050078
0.95000000 -0.15000000 -0.60000000 0.050080
-0.05000000 1.00000000 -0.65000000 0.050088
-0.15000000 -0.40000000 -0.70000000 0.050090
1.00000000 0.05000000 -0.60000000 0.050094
0.45000000 0.25000000 1.00000000 0.050101
0.90000000 -0.75000000 -0.45000000 0.050110
0.85000000 0.50000000 -0.55000000 0.050111
0.45000000 -0.85000000 -0.60000000 0.050114
-0.20000000 0.90000000 0.75000000 0.050115
0.25000000 -0.75000000 -0.65000000 0.050121
-0.55000000 -0.35000000 -0.70000000 0.050127
0.35000000 0.10000000 -0.70000000 0.050130
-0.05000000 -0.85000000 0.85000000 0.050130
-0.60000000 -0.55000000 0.85000000 0.050133
0.15000000 -0.70000000 0.90000000 0.050141
-0.35000000 0.65000000 -0.70000000 0.050150
-0.30000000 0.75000000 0.80000000 0.050156
-0.20000000 0.70000000 -0.70000000 0.050167
-0.35000000 -0.90000000 0.80000000 0.050175
-0.05000000 -0.35000000 -0.70000000 0.050176
0.60000000 0.40000000 -0.65000000 0.050177
0.80000000 -0.80000000 0.60000000 0.050178
1.00000000 0.85000000 -0.25000000 0.050179
0.90000000 -0.95000000 0.45000000 0.050180
0.85000000 1.00000000 -0.25000000 0.050182
0.50000000 0.90000000 -0.55000000 0.050186
0.90000000 0.45000000 -0.55000000 0.050207
0.55000000 -0.50000000 0.85000000 0.050211
0.10000000 -1.00000000 -0.65000000 0.050214
0.75000000 -0.65000000 0.70000000 0.050219
0.65000000 -0.65000000 0.75000000 0.050226
-0.80000000 0.35000000 0.80000000 0.050232
-0.35000000 -0.65000000 0.90000000 0.050233
0.25000000 0.45000000 1.00000000 0.050257
0.40000000 0.85000000 -0.60000000 0.050262
-0.65000000 -0.75000000 0.75000000 0.050263
0.80000000 0.00000000 0.80000000 0.050263
0.30000000 -0.55000000 0.95000000 0.050275
0.30000000 0.00000000 -0.70000000 0.050278
0.65000000 0.40000000 0.80000000 0.050282
0.55000000 0.25000000 0.90000000 0.050284
-0.80000000 0.85000000 0.55000000 0.050289
-0.55000000 -1.00000000 -0.60000000 0.050291
-0.55000000 -0.60000000 0.85000000 0.050293
-0.35000000 -0.75000000 0.85000000 0.050295
0.55000000 -0.35000000 0.90000000 0.050299
0.95000000 0.55000000 -0.50000000 0.050301
0.55000000 -1.00000000 -0.55000000 0.050302
-0.10000000 0.70000000 0.85000000 0.050303
0.80000000 -0.90000000 0.55000000 0.050310
0.40000000 0.65000000 0.80000000 0.050313
0.75000000 -0.65000000 -0.55000000 0.050337
0.45000000 -0.40000000 0.95000000 0.050338
1.00000000 -0.70000000 -0.45000000 0.050346
-0.25000000 -0.80000000 0.85000000 0.050349
-0.55000000 0.50000000 0.85000000 0.050351
-0.70000000 -0.25000000 -0.70000000 0.050354
-0.40000000 -0.80000000 -0.65000000 0.050355
-0.65000000 0.25000000 0.90000000 0.050366
-0.40000000 -0.40000000 -0.70000000 0.050368
0.00000000 0.70000000 0.85000000 0.050369
-1.00000000 -0.45000000 0.75000000 0.050370
-0.80000000 0.25000000 -0.70000000 0.050376
-1.00000000 0.80000000 0.50000000 0.050377
0.50000000 -0.45000000 -0.65000000 0.050377
0.80000000 -0.70000000 0.65000000 0.050387
0.80000000 -0.10000000 0.80000000 0.050391
-0.35000000 -0.85000000 -0.65000000 0.050398
0.10000000 0.90000000 0.75000000 0.050401
-0.55000000 0.30000000 0.95000000 0.050401
-0.95000000 0.05000000 -0.70000000 0.050403
-0.90000000 -0.50000000 0.75000000 0.050408
0.25000000 0.55000000 0.90000000 0.050413
-0.20000000 -0.40000000 -0.70000000 0.050416
-0.55000000 0.85000000 -0.60000000 0.050425
-0.40000000 0.45000000 0.95000000 0.050436
0.65000000 -0.90000000 0.65000000 0.050440
-0.95000000 -0.60000000 -0.60000000 0.050448
-0.95000000 0.00000000 -0.70000000 0.050450
0.40000000 0.75000000 0.75000000 0.050456
0.10000000 0.90000000 -0.65000000 0.050457
0.95000000 0.10000000 -0.60000000 0.050460
0.70000000 0.00000000 0.85000000 0.050468
0.20000000 -0.80000000 -0.65000000 0.050469
1.00000000 -0.05000000 -0.60000000 0.050470
-0.60000000 0.45000000 0.85000000 0.050472
-0.35000000 1.00000000 0.70000000 0.050500
0.75000000 0.40000000 0.75000000 0.050508
-0.40000000 -0.85000000 0.80000000 0.050511
0.00000000 -0.30000000 -0.70000000 0.050527
-0.65000000 -0.15000000 0.95000000 0.050527
1.00000000 0.00000000 -0.60000000 0.050529
0.85000000 0.85000000 -0.35000000 0.050535
-0.05000000 0.70000000 -0.70000000 0.050540
0.70000000 -0.10000000 0.85000000 0.050542
0.75000000 0.90000000 -0.40000000 0.050549
0.65000000 -0.15000000 -0.65000000 0.050551
-0.30000000 -0.95000000 0.80000000 0.050554
-0.95000000 0.50000000 0.70000000 0.050565
-0.95000000 -0.25000000 0.80000000 0.050579
0.35000000 0.35000000 -0.70000000 0.050587
0.20000000 0.75000000 0.80000000 0.050592
-0.75000000 0.90000000 0.55000000 0.050595
0.80000000 -0.05000000 0.80000000 0.050598
-0.05000000 0.70000000 0.85000000 0.050601
0.35000000 0.15000000 -0.70000000 0.050603
-0.95000000 0.60000000 0.65000000 0.050608
-0.60000000 -0.80000000 0.75000000 0.050609
-0.25000000 0.90000000 -0.65000000 0.050611
-0.50000000 0.90000000 -0.60000000 0.050614
0.95000000 -1.00000000 -0.30000000 0.050614
0.85000000 -0.90000000 -0.40000000 0.050622
-0.45000000 -0.75000000 -0.65000000 0.050624
0.45000000 0.30000000 0.95000000 0.050631
-0.25000000 -0.40000000 -0.70000000 0.050631
-0.35000000 -0.40000000 -0.70000000 0.050636
0.55000000 -0.70000000 -0.60000000 0.050637
0.10000000 -0.95000000 -0.65000000 0.050641
-0.60000000 -0.30000000 0.95000000 0.050643
-0.90000000 0.40000000 0.75000000 0.050648
-1.00000000 0.55000000 -0.60000000 0.050655
-0.15000000 0.70000000 -0.70000000 0.050663
0.60000000 -0.85000000 -0.55000000 0.050665
1.00000000 0.70000000 -0.40000000 0.050676
-0.90000000 0.90000000 0.45000000 0.050679
0.10000000 0.65000000 -0.70000000 0.050688
-1.00000000 0.35000000 0.75000000 0.050699
0.25000000 -0.05000000 -0.70000000 0.050702
-0.80000000 -0.20000000 0.85000000 0.050705
0.75000000 0.20000000 0.80000000 0.050711
-0.30000000 -0.40000000 -0.70000000 0.050714
-0.10000000 -0.35000000 -0.70000000 0.050721
-0.95000000 -0.80000000 0.60000000 0.050728
0.30000000 0.45000000 0.95000000 0.050728
-0.80000000 0.50000000 -0.65000000 0.050734
0.60000000 0.90000000 -0.50000000 0.050735
0.65000000 0.25000000 -0.65000000 0.050746
-0.30000000 -0.90000000 -0.65000000 0.050752
0.70000000 -0.05000000 0.85000000 0.050764
0.05000000 -0.25000000 -0.70000000 0.050764
-0.95000000 0.95000000 -0.35000000 0.050767
-0.50000000 -0.45000000 0.95000000 0.050767
0.80000000 0.35000000 -0.60000000 0.050768
-0.95000000 0.75000000 0.55000000 0.050773
0.55000000 -0.15000000 0.95000000 0.050777
0.25000000 -0.65000000 0.90000000 0.050777
-0.75000000 -0.20000000 -0.70000000 0.050780
0.80000000 0.55000000 -0.55000000 0.050785
-0.10000000 0.70000000 -0.70000000 0.050785
-0.15000000 0.95000000 -0.65000000 0.050786
-0.75000000 0.30000000 -0.70000000 0.050792
0.00000000 0.95000000 -0.65000000 0.050804
0.55000000 0.05000000 0.95000000 0.050811
-0.50000000 0.55000000 -0.70000000 0.050820
-0.45000000 -0.50000000 0.95000000 0.050828
0.40000000 -0.65000000 0.85000000 0.050828
-0.15000000 -0.65000000 0.95000000 0.050830
-0.90000000 -0.05000000 -0.70000000 0.050839
0.50000000 0.55000000 -0.65000000 0.050842
-0.90000000 0.10000000 -0.70000000 0.050847
-0.25000000 -1.00000000 -0.65000000 0.050848
-0.95000000 -0.60000000 0.70000000 0.050851
-0.65000000 0.05000000 0.95000000 0.050853
-0.70000000 -0.75000000 -0.60000000 0.050856
0.40000000 -0.95000000 -0.60000000 0.050864
-0.80000000 0.60000000 0.70000000 0.050865
0.90000000 -0.20000000 -0.60000000 0.050869
0.50000000 0.45000000 0.85000000 0.050871
-0.20000000 0.60000000 0.90000000 0.050872
0.60000000 0.10000000 0.90000000 0.050872
0.45000000 0.50000000 0.85000000 0.050889
-0.50000000 -0.40000000 1.00000000 0.050890
0.30000000 0.75000000 -0.65000000 0.050892
0.40000000 -0.95000000 0.75000000 0.050893
-0.65000000 -0.80000000 -0.60000000 0.050895
-0.30000000 0.65000000 0.85000000 0.050903
0.20000000 -0.10000000 -0.70000000 0.050909
0.10000000 -0.20000000 -0.70000000 0.050910
-0.40000000 0.70000000 0.80000000 0.050913
0.15000000 -0.80000000 0.85000000 0.050915
0.15000000 -0.85000000 -0.65000000 0.050920
0.40000000 0.85000000 0.70000000 0.050923
0.60000000 -0.20000000 0.90000000 0.050924
0.05000000 -0.65000000 0.95000000 0.050929
-0.55000000 0.70000000 -0.65000000 0.050931
0.35000000 0.20000000 -0.70000000 0.050935
-0.30000000 -0.60000000 0.95000000 0.050936
-0.70000000 -0.20000000 0.90000000 0.050940
-0.40000000 -0.50000000 1.00000000 0.050961
-0.60000000 -1.00000000 0.70000000 0.050965
0.15000000 -0.15000000 -0.70000000 0.050965
0.70000000 -0.50000000 -0.60000000 0.050967
0.95000000 -0.55000000 0.65000000 0.050975
-0.60000000 -0.30000000 -0.70000000 0.050980
0.95000000 -0.80000000 -0.40000000 0.050980
0.35000000 0.30000000 -0.70000000 0.050981
-0.50000000 -0.35000000 -0.70000000 0.050983
-0.60000000 0.80000000 -0.60000000 0.050986
-0.70000000 -0.55000000 -0.65000000 0.050988
-0.15000000 0.55000000 0.95000000 0.050998
0.30000000 0.05000000 -0.70000000 0.051005
0.75000000 -0.95000000 -0.45000000 0.051005
0.30000000 1.00000000 -0.60000000 0.051009
0.35000000 0.90000000 -0.60000000 0.051010
-0.80000000 -0.15000000 -0.70000000 0.051013
-1.00000000 0.40000000 -0.65000000 0.051018
-0.95000000 0.15000000 0.80000000 0.051031
-0.85000000 -0.10000000 -0.70000000 0.051035
-0.75000000 -0.50000000 0.80000000 0.051036
-0.90000000 -0.30000000 0.80000000 0.051036
0.10000000 0.60000000 0.90000000 0.051037
0.45000000 -0.50000000 -0.65000000 0.051040
0.65000000 -0.50000000 0.80000000 0.051064
0.90000000 0.10000000 0.75000000 0.051065
0.45000000 1.00000000 -0.55000000 0.051068
-0.40000000 0.80000000 0.75000000 0.051077
0.35000000 0.25000000 -0.70000000 0.051078
0.55000000 -0.90000000 0.70000000 0.051082
0.30000000 0.45000000 -0.70000000 0.051083
-0.50000000 1.00000000 0.65000000 0.051083
0.05000000 0.55000000 0.95000000 0.051084
-1.00000000 -0.20000000 0.80000000 0.051092
0.25000000 -0.75000000 0.85000000 0.051100
0.95000000 -0.10000000 -0.60000000 0.051117
-1.00000000 0.80000000 -0.45000000 0.051124
0.85000000 0.40000000 0.70000000 0.051141
-0.80000000 0.10000000 0.85000000 0.051146
-0.30000000 0.85000000 0.75000000 0.051158
-0.60000000 -0.20000000 1.00000000 0.051158
-0.50000000 -0.70000000 -0.65000000 0.051159
-1.00000000 0.65000000 -0.55000000 0.051165
-0.05000000 -0.30000000 -0.70000000 0.051167
-0.60000000 0.95000000 -0.55000000 0.051184
0.55000000 -0.35000000 -0.65000000 0.051192
-0.15000000 -0.35000000 -0.70000000 0.051197
0.80000000 -0.35000000 -0.60000000 0.051202
0.65000000 0.20000000 0.85000000 0.051204
0.20000000 -0.60000000 0.95000000 0.051206
0.95000000 -0.45000000 -0.55000000 0.051207
0.25000000 1.00000000 0.70000000 0.051215
0.25000000 -0.90000000 0.80000000 0.051221
-0.70000000 0.35000000 -0.70000000 0.051223
0.80000000 -0.85000000 -0.45000000 0.051236
0.50000000 -0.30000000 0.95000000 0.051254
-0.40000000 0.80000000 -0.65000000 0.051258
0.75000000 -0.30000000 0.80000000 0.051261
-0.55000000 -0.85000000 0.75000000 0.051265
0.20000000 0.65000000 0.85000000 0.051266
-0.20000000 -0.60000000 1.00000000 0.051273
-0.45000000 -0.80000000 0.80000000 0.051273
0.60000000 -0.70000000 0.75000000 0.051275
0.65000000 0.90000000 0.55000000 0.051279
0.50000000 -0.55000000 0.85000000 0.051281
0.30000000 -0.50000000 1.00000000 0.051282
0.60000000 -0.25000000 -0.65000000 0.051289
-0.90000000 0.00000000 -0.70000000 0.051304
-0.70000000 -1.00000000 0.65000000 0.051309
-0.60000000 0.20000000 0.95000000 0.051309
-0.90000000 0.05000000 -0.70000000 0.051313
-0.40000000 0.60000000 0.85000000 0.051319
0.70000000 0.50000000 -0.60000000 0.051321
0.85000000 1.00000000 0.30000000 0.051328
-0.10000000 0.95000000 -0.65000000 0.051349
0.95000000 -0.40000000 0.70000000 0.051350
0.10000000 -0.60000000 1.00000000 0.051353
0.95000000 0.05000000 -0.60000000 0.051354
-0.05000000 0.95000000 -0.65000000 0.051355
0.35000000 -0.50000000 0.95000000 0.051358
-0.25000000 -0.95000000 -0.65000000 0.051362
-0.85000000 0.15000000 -0.70000000 0.051370
-0.85000000 0.95000000 0.45000000 0.051371
0.60000000 1.00000000 0.55000000 0.051375
-0.30000000 0.50000000 0.95000000 0.051385
0.65000000 -0.10000000 -0.65000000 0.051389
0.40000000 -0.45000000 0.95000000 0.051390
-1.00000000 -1.00000000 0.50000000 0.051392
0.90000000 -0.45000000 0.70000000 0.051393
-0.55000000 -0.95000000 -0.60000000 0.051398
0.40000000 -0.40000000 1.00000000 0.051398
-0.70000000 0.10000000 0.90000000 0.051409
0.50000000 0.20000000 0.95000000 0.051416
-0.85000000 -0.45000000 -0.65000000 0.051423
-0.75000000 0.40000000 0.80000000 0.051429
-0.55000000 0.60000000 0.80000000 0.051433
-0.55000000 0.50000000 -0.70000000 0.051440
0.85000000 0.25000000 -0.60000000 0.051441
0.90000000 0.65000000 0.55000000 0.051445
-0.65000000 -0.10000000 0.95000000 0.051452
0.20000000 -0.95000000 0.80000000 0.051458
-1.00000000 0.10000000 0.80000000 0.051458
0.10000000 -0.90000000 -0.65000000 0.051459
0.45000000 -0.60000000 0.85000000 0.051464
0.00000000 -0.25000000 -0.70000000 0.051484
0.40000000 -0.55000000 -0.65000000 0.051485
-0.45000000 -0.45000000 1.00000000 0.051488
0.65000000 -0.30000000 0.85000000 0.051489
0.95000000 0.40000000 -0.55000000 0.051489
-0.50000000 0.35000000 0.95000000 0.051495
-0.90000000 0.70000000 0.60000000 0.051501
-0.45000000 0.40000000 0.95000000 0.051511
0.25000000 0.00000000 -0.70000000 0.051525
0.90000000 -0.85000000 0.50000000 0.051536
0.70000000 -0.70000000 -0.55000000 0.051539
0.30000000 0.70000000 0.80000000 0.051550
-0.65000000 0.40000000 -0.70000000 0.051551
-1.00000000 0.85000000 0.45000000 0.051556
-0.90000000 0.20000000 0.80000000 0.051557
0.35000000 0.70000000 -0.65000000 0.051561
0.70000000 0.30000000 0.80000000 0.051563
0.90000000 0.95000000 -0.20000000 0.051563
1.00000000 0.85000000 0.30000000 0.051571
-0.70000000 0.95000000 -0.50000000 0.051575
-0.75000000 -0.70000000 -0.60000000 0.051582
0.90000000 -0.20000000 0.75000000 0.051583
-0.45000000 -0.35000000 -0.70000000 0.051584
0.50000000 -0.20000000 1.00000000 0.051585
0.55000000 -0.95000000 -0.55000000 0.051588
-0.20000000 -0.35000000 -0.70000000 0.051593
-0.70000000 -0.40000000 0.85000000 0.051594
0.15000000 0.85000000 -0.65000000 0.051598
0.45000000 0.60000000 -0.65000000 0.051604
-0.80000000 -0.95000000 0.60000000 0.051605
0.95000000 0.90000000 -0.20000000 0.051609
0.20000000 0.50000000 0.95000000 0.051609
0.95000000 -0.60000000 -0.50000000 0.051616
0.65000000 0.95000000 -0.45000000 0.051616
0.55000000 -0.10000000 0.95000000 0.051619
-0.65000000 0.00000000 0.95000000 0.051620
-0.60000000 0.10000000 1.00000000 0.051624
-0.55000000 0.80000000 0.70000000 0.051631
0.90000000 0.15000000 -0.60000000 0.051635
0.55000000 0.00000000 0.95000000 0.051636
0.05000000 -1.00000000 -0.65000000 0.051639
-0.85000000 0.60000000 -0.60000000 0.051645
-0.50000000 0.30000000 1.00000000 0.051651
-0.30000000 0.65000000 -0.70000000 0.051653
-0.60000000 0.45000000 -0.70000000 0.051659
-0.70000000 -0.95000000 -0.55000000 0.051661
