//X Y Z Consensus 
0.70000000 0.60000000 -0.85000000 0.000000
0.70000000 0.60000000 -0.80000000 0.000000
0.70000000 0.60000000 -0.75000000 0.000000
0.70000000 0.60000000 -0.70000000 0.000000
0.70000000 0.60000000 -0.65000000 0.000000
0.70000000 0.60000000 -0.60000000 0.000000
0.70000000 0.60000000 -0.55000000 0.000000
0.70000000 0.60000000 -0.50000000 0.000000
0.70000000 0.60000000 -0.45000000 0.002874
0.70000000 0.60000000 -0.40000000 0.041398
0.70000000 0.60000000 -0.35000000 0.125825
0.70000000 0.60000000 -0.30000000 0.211495
0.70000000 0.60000000 -0.25000000 0.273786
0.70000000 0.60000000 -0.20000000 0.328311
0.70000000 0.60000000 -0.15000000 0.388971
0.70000000 0.60000000 -0.10000000 0.503301
0.70000000 0.60000000 -0.05000000 0.637592
0.70000000 0.60000000 0.00000000 0.858641
0.70000000 0.60000000 0.05000000 0.849010
0.70000000 0.60000000 0.10000000 0.357981
0.70000000 0.60000000 0.15000000 0.093437
0.70000000 0.60000000 0.20000000 0.033087
0.70000000 0.60000000 0.25000000 0.013515
0.70000000 0.60000000 0.30000000 0.009010
0.70000000 0.60000000 0.35000000 0.004816
0.70000000 0.60000000 0.40000000 0.002175
0.70000000 0.60000000 0.45000000 0.000155
0.70000000 0.60000000 0.50000000 0.000000
0.70000000 0.60000000 0.55000000 0.000000
0.70000000 0.60000000 0.60000000 0.000000
0.70000000 0.60000000 0.65000000 0.000000
0.70000000 0.60000000 0.70000000 0.000000
0.70000000 0.60000000 0.75000000 0.000000
0.70000000 0.60000000 0.80000000 0.000000
0.70000000 0.60000000 0.85000000 0.000000
0.70000000 0.60000000 0.90000000 0.000000
0.70000000 0.60000000 0.95000000 0.000000
0.70000000 0.60000000 1.00000000 0.000000
0.70000000 0.65000000 -1.00000000 0.000000
0.70000000 0.65000000 -0.95000000 0.000000
0.70000000 0.65000000 -0.90000000 0.000000
0.70000000 0.65000000 -0.85000000 0.000000
0.70000000 0.65000000 -0.80000000 0.000000
0.70000000 0.65000000 -0.75000000 0.000000
0.70000000 0.65000000 -0.70000000 0.000000
0.70000000 0.65000000 -0.65000000 0.000000
0.70000000 0.65000000 -0.60000000 0.000000
0.70000000 0.65000000 -0.55000000 0.000000
0.70000000 0.65000000 -0.50000000 0.000000
0.70000000 0.65000000 -0.45000000 0.000000
0.70000000 0.65000000 -0.40000000 0.000000
0.70000000 0.65000000 -0.35000000 0.021903
0.70000000 0.65000000 -0.30000000 0.101748
0.70000000 0.65000000 -0.25000000 0.228660
0.70000000 0.65000000 -0.20000000 0.308427
0.70000000 0.65000000 -0.15000000 0.397825
0.70000000 0.65000000 -0.10000000 0.501049
0.70000000 0.65000000 -0.05000000 0.645825
0.70000000 0.65000000 0.00000000 0.843029
0.70000000 0.65000000 0.05000000 0.843728
0.70000000 0.65000000 0.10000000 0.349049
0.70000000 0.65000000 0.15000000 0.097553
0.70000000 0.65000000 0.20000000 0.034330
0.70000000 0.65000000 0.25000000 0.010252
0.70000000 0.65000000 0.30000000 0.003495
0.70000000 0.65000000 0.35000000 0.000777
0.70000000 0.65000000 0.40000000 0.000000
0.70000000 0.65000000 0.45000000 0.000000
0.70000000 0.65000000 0.50000000 0.000000
0.70000000 0.65000000 0.55000000 0.000000
0.70000000 0.65000000 0.60000000 0.000000
0.70000000 0.65000000 0.65000000 0.000000
0.70000000 0.65000000 0.70000000 0.000000
0.70000000 0.65000000 0.75000000 0.000000
0.70000000 0.65000000 0.80000000 0.000000
0.70000000 0.65000000 0.85000000 0.000000
0.70000000 0.65000000 0.90000000 0.000000
0.70000000 0.65000000 0.95000000 0.000000
0.70000000 0.65000000 1.00000000 0.000000
0.70000000 0.70000000 -1.00000000 0.000000
0.70000000 0.70000000 -0.95000000 0.000000
0.70000000 0.70000000 -0.90000000 0.000000
0.70000000 0.70000000 -0.85000000 0.000000
0.70000000 0.70000000 -0.80000000 0.000000
0.70000000 0.70000000 -0.75000000 0.000000
0.70000000 0.70000000 -0.70000000 0.000000
0.70000000 0.70000000 -0.65000000 0.000000
0.70000000 0.70000000 -0.60000000 0.000000
0.70000000 0.70000000 -0.55000000 0.000000
0.70000000 0.70000000 -0.50000000 0.000000
0.70000000 0.70000000 -0.45000000 0.000000
0.70000000 0.70000000 -0.40000000 0.000000
0.70000000 0.70000000 -0.35000000 0.000000
0.70000000 0.70000000 -0.30000000 0.000000
0.70000000 0.70000000 -0.25000000 0.023845
0.70000000 0.70000000 -0.20000000 0.086913
0.70000000 0.70000000 -0.15000000 0.184078
0.70000000 0.70000000 -0.10000000 0.310447
0.70000000 0.70000000 -0.05000000 0.491806
0.70000000 0.70000000 0.00000000 0.644194
0.70000000 0.70000000 0.05000000 0.634330
0.70000000 0.70000000 0.10000000 0.212194
0.70000000 0.70000000 0.15000000 0.046602
0.70000000 0.70000000 0.20000000 0.009320
0.70000000 0.70000000 0.25000000 0.001476
0.70000000 0.70000000 0.30000000 0.000000
0.70000000 0.70000000 0.35000000 0.000000
0.70000000 0.70000000 0.40000000 0.000000
0.70000000 0.70000000 0.45000000 0.000000
0.70000000 0.70000000 0.50000000 0.000000
0.70000000 0.70000000 0.55000000 0.000000
0.70000000 0.70000000 0.60000000 0.000000
0.70000000 0.70000000 0.65000000 0.000000
0.70000000 0.70000000 0.70000000 0.000000
0.70000000 0.70000000 0.75000000 0.000000
0.70000000 0.70000000 0.80000000 0.000000
0.70000000 0.70000000 0.85000000 0.000000
0.70000000 0.70000000 0.90000000 0.000000
0.70000000 0.70000000 0.95000000 0.000000
0.70000000 0.70000000 1.00000000 0.000000
0.70000000 0.75000000 -1.00000000 0.000000
0.70000000 0.75000000 -0.95000000 0.000000
0.70000000 0.75000000 -0.90000000 0.000000
0.70000000 0.75000000 -0.85000000 0.000000
0.70000000 0.75000000 -0.80000000 0.000000
0.70000000 0.75000000 -0.75000000 0.000000
0.70000000 0.75000000 -0.70000000 0.000000
0.70000000 0.75000000 -0.65000000 0.000000
0.70000000 0.75000000 -0.60000000 0.000000
0.70000000 0.75000000 -0.55000000 0.000000
0.70000000 0.75000000 -0.50000000 0.000000
0.70000000 0.75000000 -0.45000000 0.000000
0.70000000 0.75000000 -0.40000000 0.000000
0.70000000 0.75000000 -0.35000000 0.000000
0.70000000 0.75000000 -0.30000000 0.000000
0.70000000 0.75000000 -0.25000000 0.000000
0.70000000 0.75000000 -0.20000000 0.000000
0.70000000 0.75000000 -0.15000000 0.000000
0.70000000 0.75000000 -0.10000000 0.000000
0.70000000 0.75000000 -0.05000000 0.025010
0.70000000 0.75000000 0.00000000 0.032466
0.70000000 0.75000000 0.05000000 0.027806
0.70000000 0.75000000 0.10000000 0.000000
0.70000000 0.75000000 0.15000000 0.000000
0.70000000 0.75000000 0.20000000 0.000000
0.70000000 0.75000000 0.25000000 0.000000
0.70000000 0.75000000 0.30000000 0.000000
0.70000000 0.75000000 0.35000000 0.000000
0.70000000 0.75000000 0.40000000 0.000000
0.70000000 0.75000000 0.45000000 0.000000
0.70000000 0.75000000 0.50000000 0.000000
0.70000000 0.75000000 0.55000000 0.000000
0.70000000 0.75000000 0.60000000 0.000000
0.70000000 0.75000000 0.65000000 0.000000
0.70000000 0.75000000 0.70000000 0.000000
0.70000000 0.75000000 0.75000000 0.000000
0.70000000 0.75000000 0.80000000 0.000000
0.70000000 0.75000000 0.85000000 0.000000
0.70000000 0.75000000 0.90000000 0.000000
0.70000000 0.75000000 0.95000000 0.000000
0.70000000 0.75000000 1.00000000 0.000000
0.70000000 0.80000000 -1.00000000 0.000000
0.70000000 0.80000000 -0.95000000 0.000000
0.70000000 0.80000000 -0.90000000 0.000000
0.70000000 0.80000000 -0.85000000 0.000000
0.70000000 0.80000000 -0.80000000 0.000000
0.70000000 0.80000000 -0.75000000 0.000000
0.70000000 0.80000000 -0.70000000 0.000000
0.70000000 0.80000000 -0.65000000 0.000000
0.70000000 0.80000000 -0.60000000 0.000000
0.70000000 0.80000000 -0.55000000 0.000000
0.70000000 0.80000000 -0.50000000 0.000000
0.70000000 0.80000000 -0.45000000 0.000000
0.70000000 0.80000000 -0.40000000 0.000000
0.70000000 0.80000000 -0.35000000 0.000000
0.70000000 0.80000000 -0.30000000 0.000000
0.70000000 0.80000000 -0.25000000 0.000000
0.70000000 0.80000000 -0.20000000 0.000000
0.70000000 0.80000000 -0.15000000 0.000000
0.70000000 0.80000000 -0.10000000 0.000000
0.70000000 0.80000000 -0.05000000 0.000000
0.70000000 0.80000000 0.00000000 0.000000
0.70000000 0.80000000 0.05000000 0.000000
0.70000000 0.80000000 0.10000000 0.000000
0.70000000 0.80000000 0.15000000 0.000000
0.70000000 0.80000000 0.20000000 0.000000
0.70000000 0.80000000 0.25000000 0.000000
0.70000000 0.80000000 0.30000000 0.000000
0.70000000 0.80000000 0.35000000 0.000000
0.70000000 0.80000000 0.40000000 0.000000
0.70000000 0.80000000 0.45000000 0.000000
0.70000000 0.80000000 0.50000000 0.000000
0.70000000 0.80000000 0.55000000 0.000000
0.70000000 0.80000000 0.60000000 0.000000
0.70000000 0.80000000 0.65000000 0.000000
0.70000000 0.80000000 0.70000000 0.000000
0.70000000 0.80000000 0.75000000 0.000000
0.70000000 0.80000000 0.80000000 0.000000
0.70000000 0.80000000 0.85000000 0.000000
0.70000000 0.80000000 0.90000000 0.000000
0.70000000 0.80000000 0.95000000 0.000000
0.70000000 0.80000000 1.00000000 0.000000
0.70000000 0.85000000 -1.00000000 0.000000
0.70000000 0.85000000 -0.95000000 0.000000
0.70000000 0.85000000 -0.90000000 0.000000
0.70000000 0.85000000 -0.85000000 0.000000
0.70000000 0.85000000 -0.80000000 0.000000
0.70000000 0.85000000 -0.75000000 0.000000
0.70000000 0.85000000 -0.70000000 0.000000
0.70000000 0.85000000 -0.65000000 0.000000
0.70000000 0.85000000 -0.60000000 0.000000
0.70000000 0.85000000 -0.55000000 0.000000
0.70000000 0.85000000 -0.50000000 0.000000
0.70000000 0.85000000 -0.45000000 0.000000
0.70000000 0.85000000 -0.40000000 0.000000
0.70000000 0.85000000 -0.35000000 0.000000
0.70000000 0.85000000 -0.30000000 0.000000
0.70000000 0.85000000 -0.25000000 0.000000
0.70000000 0.85000000 -0.20000000 0.000000
0.70000000 0.85000000 -0.15000000 0.000000
0.70000000 0.85000000 -0.10000000 0.000000
0.70000000 0.85000000 -0.05000000 0.000000
0.70000000 0.85000000 0.00000000 0.000000
0.70000000 0.85000000 0.05000000 0.000000
0.70000000 0.85000000 0.10000000 0.000000
0.70000000 0.85000000 0.15000000 0.000000
0.70000000 0.85000000 0.20000000 0.000000
0.70000000 0.85000000 0.25000000 0.000000
0.70000000 0.85000000 0.30000000 0.000000
0.70000000 0.85000000 0.35000000 0.000000
0.70000000 0.85000000 0.40000000 0.000000
0.70000000 0.85000000 0.45000000 0.000000
0.70000000 0.85000000 0.50000000 0.000000
0.70000000 0.85000000 0.55000000 0.000000
0.70000000 0.85000000 0.60000000 0.000000
0.70000000 0.85000000 0.65000000 0.000000
0.70000000 0.85000000 0.70000000 0.000000
0.70000000 0.85000000 0.75000000 0.000000
0.70000000 0.85000000 0.80000000 0.000000
0.70000000 0.85000000 0.85000000 0.000000
0.70000000 0.85000000 0.90000000 0.000000
0.70000000 0.85000000 0.95000000 0.000000
0.70000000 0.85000000 1.00000000 0.000000
0.70000000 0.90000000 -1.00000000 0.000000
0.70000000 0.90000000 -0.95000000 0.000000
0.70000000 0.90000000 -0.90000000 0.000000
0.70000000 0.90000000 -0.85000000 0.000000
0.70000000 0.90000000 -0.80000000 0.000000
0.70000000 0.90000000 -0.75000000 0.000000
0.70000000 0.90000000 -0.70000000 0.000000
0.70000000 0.90000000 -0.65000000 0.000000
0.70000000 0.90000000 -0.60000000 0.000000
0.70000000 0.90000000 -0.55000000 0.000000
0.70000000 0.90000000 -0.50000000 0.000000
0.70000000 0.90000000 -0.45000000 0.000000
0.70000000 0.90000000 -0.40000000 0.000000
0.70000000 0.90000000 -0.35000000 0.000000
0.70000000 0.90000000 -0.30000000 0.000000
0.70000000 0.90000000 -0.25000000 0.000000
0.70000000 0.90000000 -0.20000000 0.000000
0.70000000 0.90000000 -0.15000000 0.000000
0.70000000 0.90000000 -0.10000000 0.000000
0.70000000 0.90000000 -0.05000000 0.000000
0.70000000 0.90000000 0.00000000 0.000000
0.70000000 0.90000000 0.05000000 0.000000
0.70000000 0.90000000 0.10000000 0.000000
0.70000000 0.90000000 0.15000000 0.000000
0.70000000 0.90000000 0.20000000 0.000000
0.70000000 0.90000000 0.25000000 0.000000
0.70000000 0.90000000 0.30000000 0.000000
0.70000000 0.90000000 0.35000000 0.000000
0.70000000 0.90000000 0.40000000 0.000000
0.70000000 0.90000000 0.45000000 0.000000
0.70000000 0.90000000 0.50000000 0.000000
0.70000000 0.90000000 0.55000000 0.000000
0.70000000 0.90000000 0.60000000 0.000000
0.70000000 0.90000000 0.65000000 0.000000
0.70000000 0.90000000 0.70000000 0.000000
0.70000000 0.90000000 0.75000000 0.000000
0.70000000 0.90000000 0.80000000 0.000000
0.70000000 0.90000000 0.85000000 0.000000
0.70000000 0.90000000 0.90000000 0.000000
0.70000000 0.90000000 0.95000000 0.000000
0.70000000 0.90000000 1.00000000 0.000000
0.70000000 0.95000000 -1.00000000 0.000000
0.70000000 0.95000000 -0.95000000 0.000000
0.70000000 0.95000000 -0.90000000 0.000000
0.70000000 0.95000000 -0.85000000 0.000000
0.70000000 0.95000000 -0.80000000 0.000000
0.70000000 0.95000000 -0.75000000 0.000000
0.70000000 0.95000000 -0.70000000 0.000000
0.70000000 0.95000000 -0.65000000 0.000000
0.70000000 0.95000000 -0.60000000 0.000000
0.70000000 0.95000000 -0.55000000 0.000000
0.70000000 0.95000000 -0.50000000 0.000000
0.70000000 0.95000000 -0.45000000 0.000000
0.70000000 0.95000000 -0.40000000 0.000000
0.70000000 0.95000000 -0.35000000 0.000000
0.70000000 0.95000000 -0.30000000 0.000000
0.70000000 0.95000000 -0.25000000 0.000000
0.70000000 0.95000000 -0.20000000 0.000000
0.70000000 0.95000000 -0.15000000 0.000000
0.70000000 0.95000000 -0.10000000 0.000000
0.70000000 0.95000000 -0.05000000 0.000000
0.70000000 0.95000000 0.00000000 0.000000
0.70000000 0.95000000 0.05000000 0.000000
0.70000000 0.95000000 0.10000000 0.000000
0.70000000 0.95000000 0.15000000 0.000000
0.70000000 0.95000000 0.20000000 0.000000
0.70000000 0.95000000 0.25000000 0.000000
0.70000000 0.95000000 0.30000000 0.000000
0.70000000 0.95000000 0.35000000 0.000000
0.70000000 0.95000000 0.40000000 0.000000
0.70000000 0.95000000 0.45000000 0.000000
0.70000000 0.95000000 0.50000000 0.000000
0.70000000 0.95000000 0.55000000 0.000000
0.70000000 0.95000000 0.60000000 0.000000
0.70000000 0.95000000 0.65000000 0.000000
0.70000000 0.95000000 0.70000000 0.000000
0.70000000 0.95000000 0.75000000 0.000000
0.70000000 0.95000000 0.80000000 0.000000
0.70000000 0.95000000 0.85000000 0.000000
0.70000000 0.95000000 0.90000000 0.000000
0.70000000 0.95000000 0.95000000 0.000000
0.70000000 0.95000000 1.00000000 0.000000
0.70000000 1.00000000 -1.00000000 0.000000
0.70000000 1.00000000 -0.95000000 0.000000
0.70000000 1.00000000 -0.90000000 0.000000
0.70000000 1.00000000 -0.85000000 0.000000
0.70000000 1.00000000 -0.80000000 0.000000
0.70000000 1.00000000 -0.75000000 0.000000
0.70000000 1.00000000 -0.70000000 0.000000
0.70000000 1.00000000 -0.65000000 0.000000
0.70000000 1.00000000 -0.60000000 0.000000
0.70000000 1.00000000 -0.55000000 0.000000
0.70000000 1.00000000 -0.50000000 0.000000
0.70000000 1.00000000 -0.45000000 0.000000
0.70000000 1.00000000 -0.40000000 0.000000
0.70000000 1.00000000 -0.35000000 0.000000
0.70000000 1.00000000 -0.30000000 0.000000
0.70000000 1.00000000 -0.25000000 0.000000
0.70000000 1.00000000 -0.20000000 0.000000
0.70000000 1.00000000 -0.15000000 0.000000
0.70000000 1.00000000 -0.10000000 0.000000
0.70000000 1.00000000 -0.05000000 0.000000
0.70000000 1.00000000 0.00000000 0.000000
0.70000000 1.00000000 0.05000000 0.000000
0.70000000 1.00000000 0.10000000 0.000000
0.70000000 1.00000000 0.15000000 0.000000
0.70000000 1.00000000 0.20000000 0.000000
0.70000000 1.00000000 0.25000000 0.000000
0.70000000 1.00000000 0.30000000 0.000000
0.70000000 1.00000000 0.35000000 0.000000
0.70000000 1.00000000 0.40000000 0.000000
0.70000000 1.00000000 0.45000000 0.000000
0.70000000 1.00000000 0.50000000 0.000000
0.70000000 1.00000000 0.55000000 0.000000
0.70000000 1.00000000 0.60000000 0.000000
0.70000000 1.00000000 0.65000000 0.000000
0.70000000 1.00000000 0.70000000 0.000000
0.70000000 1.00000000 0.75000000 0.000000
0.70000000 1.00000000 0.80000000 0.000000
0.70000000 1.00000000 0.85000000 0.000000
0.70000000 1.00000000 0.90000000 0.000000
0.70000000 1.00000000 0.95000000 0.000000
0.70000000 1.00000000 1.00000000 0.000000
0.75000000 -1.00000000 -1.00000000 0.000000
0.75000000 -1.00000000 -0.95000000 0.000000
0.75000000 -1.00000000 -0.90000000 0.000000
0.75000000 -1.00000000 -0.85000000 0.000000
0.75000000 -1.00000000 -0.80000000 0.000000
0.75000000 -1.00000000 -0.75000000 0.000000
0.75000000 -1.00000000 -0.70000000 0.000000
0.75000000 -1.00000000 -0.65000000 0.000000
0.75000000 -1.00000000 -0.60000000 0.000000
0.75000000 -1.00000000 -0.55000000 0.000000
0.75000000 -1.00000000 -0.50000000 0.000000
0.75000000 -1.00000000 -0.45000000 0.000000
0.75000000 -1.00000000 -0.40000000 0.000000
0.75000000 -1.00000000 -0.35000000 0.000000
0.75000000 -1.00000000 -0.30000000 0.000000
0.75000000 -1.00000000 -0.25000000 0.000000
0.75000000 -1.00000000 -0.20000000 0.000000
0.75000000 -1.00000000 -0.15000000 0.000000
0.75000000 -1.00000000 -0.10000000 0.000000
0.75000000 -1.00000000 -0.05000000 0.000000
0.75000000 -1.00000000 0.00000000 0.000000
0.75000000 -1.00000000 0.05000000 0.000000
0.75000000 -1.00000000 0.10000000 0.000000
0.75000000 -1.00000000 0.15000000 0.000000
0.75000000 -1.00000000 0.20000000 0.000000
0.75000000 -1.00000000 0.25000000 0.000000
0.75000000 -1.00000000 0.30000000 0.000000
0.75000000 -1.00000000 0.35000000 0.000000
0.75000000 -1.00000000 0.40000000 0.000000
0.75000000 -1.00000000 0.45000000 0.000000
0.75000000 -1.00000000 0.50000000 0.000000
0.75000000 -1.00000000 0.55000000 0.000000
0.75000000 -1.00000000 0.60000000 0.000000
0.75000000 -1.00000000 0.65000000 0.000000
0.75000000 -1.00000000 0.70000000 0.000000
0.75000000 -1.00000000 0.75000000 0.000000
0.75000000 -1.00000000 0.80000000 0.000000
0.75000000 -1.00000000 0.85000000 0.000000
0.75000000 -1.00000000 0.90000000 0.000000
0.75000000 -1.00000000 0.95000000 0.000000
0.75000000 -1.00000000 1.00000000 0.000000
0.75000000 -0.95000000 -1.00000000 0.000000
0.75000000 -0.95000000 -0.95000000 0.000000
0.75000000 -0.95000000 -0.90000000 0.000000
0.75000000 -0.95000000 -0.85000000 0.000000
0.75000000 -0.95000000 -0.80000000 0.000000
0.75000000 -0.95000000 -0.75000000 0.000000
0.75000000 -0.95000000 -0.70000000 0.000000
0.75000000 -0.95000000 -0.65000000 0.000000
0.75000000 -0.95000000 -0.60000000 0.000000
0.75000000 -0.95000000 -0.55000000 0.000000
0.75000000 -0.95000000 -0.50000000 0.000000
0.75000000 -0.95000000 -0.45000000 0.000000
0.75000000 -0.95000000 -0.40000000 0.000000
0.75000000 -0.95000000 -0.35000000 0.000000
0.75000000 -0.95000000 -0.30000000 0.000000
0.75000000 -0.95000000 -0.25000000 0.000000
0.75000000 -0.95000000 -0.20000000 0.000000
0.75000000 -0.95000000 -0.15000000 0.000000
0.75000000 -0.95000000 -0.10000000 0.000000
0.75000000 -0.95000000 -0.05000000 0.000000
0.75000000 -0.95000000 0.00000000 0.000000
0.75000000 -0.95000000 0.05000000 0.000000
0.75000000 -0.95000000 0.10000000 0.000000
0.75000000 -0.95000000 0.15000000 0.000000
0.75000000 -0.95000000 0.20000000 0.000000
0.75000000 -0.95000000 0.25000000 0.000000
0.75000000 -0.95000000 0.30000000 0.000000
0.75000000 -0.95000000 0.35000000 0.000000
0.75000000 -0.95000000 0.40000000 0.000000
0.75000000 -0.95000000 0.45000000 0.000000
0.75000000 -0.95000000 0.50000000 0.000000
0.75000000 -0.95000000 0.55000000 0.000000
0.75000000 -0.95000000 0.60000000 0.000000
0.75000000 -0.95000000 0.65000000 0.000000
0.75000000 -0.95000000 0.70000000 0.000000
0.75000000 -0.95000000 0.75000000 0.000000
0.75000000 -0.95000000 0.80000000 0.000000
0.75000000 -0.95000000 0.85000000 0.000000
0.75000000 -0.95000000 0.90000000 0.000000
0.75000000 -0.95000000 0.95000000 0.000000
0.75000000 -0.95000000 1.00000000 0.000000
0.75000000 -0.90000000 -1.00000000 0.000000
0.75000000 -0.90000000 -0.95000000 0.000000
0.75000000 -0.90000000 -0.90000000 0.000000
0.75000000 -0.90000000 -0.85000000 0.000000
0.75000000 -0.90000000 -0.80000000 0.000000
0.75000000 -0.90000000 -0.75000000 0.000000
0.75000000 -0.90000000 -0.70000000 0.000000
0.75000000 -0.90000000 -0.65000000 0.000000
0.75000000 -0.90000000 -0.60000000 0.000000
0.75000000 -0.90000000 -0.55000000 0.000000
0.75000000 -0.90000000 -0.50000000 0.000000
0.75000000 -0.90000000 -0.45000000 0.000000
0.75000000 -0.90000000 -0.40000000 0.000000
0.75000000 -0.90000000 -0.35000000 0.000000
0.75000000 -0.90000000 -0.30000000 0.000000
0.75000000 -0.90000000 -0.25000000 0.000000
0.75000000 -0.90000000 -0.20000000 0.000000
0.75000000 -0.90000000 -0.15000000 0.000000
0.75000000 -0.90000000 -0.10000000 0.000000
0.75000000 -0.90000000 -0.05000000 0.000000
0.75000000 -0.90000000 0.00000000 0.000000
0.75000000 -0.90000000 0.05000000 0.000000
0.75000000 -0.90000000 0.10000000 0.000000
0.75000000 -0.90000000 0.15000000 0.000000
0.75000000 -0.90000000 0.20000000 0.000000
0.75000000 -0.90000000 0.25000000 0.000000
0.75000000 -0.90000000 0.30000000 0.000000
0.75000000 -0.90000000 0.35000000 0.000000
0.75000000 -0.90000000 0.40000000 0.000000
0.75000000 -0.90000000 0.45000000 0.000000
0.75000000 -0.90000000 0.50000000 0.000000
0.75000000 -0.90000000 0.55000000 0.000000
0.75000000 -0.90000000 0.60000000 0.000000
0.75000000 -0.90000000 0.65000000 0.000000
0.75000000 -0.90000000 0.70000000 0.000000
0.75000000 -0.90000000 0.75000000 0.000000
0.75000000 -0.90000000 0.80000000 0.000000
0.75000000 -0.90000000 0.85000000 0.000000
0.75000000 -0.90000000 0.90000000 0.000000
0.75000000 -0.90000000 0.95000000 0.000000
0.75000000 -0.90000000 1.00000000 0.000000
0.75000000 -0.85000000 -1.00000000 0.000000
0.75000000 -0.85000000 -0.95000000 0.000000
0.75000000 -0.85000000 -0.90000000 0.000000
0.75000000 -0.85000000 -0.85000000 0.000000
0.75000000 -0.85000000 -0.80000000 0.000000
0.75000000 -0.85000000 -0.75000000 0.000000
0.75000000 -0.85000000 -0.70000000 0.000000
0.75000000 -0.85000000 -0.65000000 0.000000
0.75000000 -0.85000000 -0.60000000 0.000000
0.75000000 -0.85000000 -0.55000000 0.000000
0.75000000 -0.85000000 -0.50000000 0.000000
0.75000000 -0.85000000 -0.45000000 0.000000
0.75000000 -0.85000000 -0.40000000 0.000000
0.75000000 -0.85000000 -0.35000000 0.000000
0.75000000 -0.85000000 -0.30000000 0.000000
0.75000000 -0.85000000 -0.25000000 0.000000
0.75000000 -0.85000000 -0.20000000 0.000000
0.75000000 -0.85000000 -0.15000000 0.000000
0.75000000 -0.85000000 -0.10000000 0.000000
0.75000000 -0.85000000 -0.05000000 0.000000
0.75000000 -0.85000000 0.00000000 0.000000
0.75000000 -0.85000000 0.05000000 0.000000
0.75000000 -0.85000000 0.10000000 0.000000
0.75000000 -0.85000000 0.15000000 0.000000
0.75000000 -0.85000000 0.20000000 0.000000
0.75000000 -0.85000000 0.25000000 0.000000
0.75000000 -0.85000000 0.30000000 0.000000
0.75000000 -0.85000000 0.35000000 0.000000
0.75000000 -0.85000000 0.40000000 0.000000
0.75000000 -0.85000000 0.45000000 0.000000
0.75000000 -0.85000000 0.50000000 0.000000
0.75000000 -0.85000000 0.55000000 0.000000
0.75000000 -0.85000000 0.60000000 0.000000
0.75000000 -0.85000000 0.65000000 0.000000
0.75000000 -0.85000000 0.70000000 0.000000
0.75000000 -0.85000000 0.75000000 0.000000
0.75000000 -0.85000000 0.80000000 0.000000
0.75000000 -0.85000000 0.85000000 0.000000
0.75000000 -0.85000000 0.90000000 0.000000
0.75000000 -0.85000000 0.95000000 0.000000
0.75000000 -0.85000000 1.00000000 0.000000
0.75000000 -0.80000000 -1.00000000 0.000000
0.75000000 -0.80000000 -0.95000000 0.000000
0.75000000 -0.80000000 -0.90000000 0.000000
0.75000000 -0.80000000 -0.85000000 0.000000
0.75000000 -0.80000000 -0.80000000 0.000000
0.75000000 -0.80000000 -0.75000000 0.000000
0.75000000 -0.80000000 -0.70000000 0.000000
0.75000000 -0.80000000 -0.65000000 0.000000
0.75000000 -0.80000000 -0.60000000 0.000000
0.75000000 -0.80000000 -0.55000000 0.000000
0.75000000 -0.80000000 -0.50000000 0.000000
0.75000000 -0.80000000 -0.45000000 0.000000
0.75000000 -0.80000000 -0.40000000 0.000000
0.75000000 -0.80000000 -0.35000000 0.000000
0.75000000 -0.80000000 -0.30000000 0.000000
0.75000000 -0.80000000 -0.25000000 0.000000
0.75000000 -0.80000000 -0.20000000 0.000000
0.75000000 -0.80000000 -0.15000000 0.000000
0.75000000 -0.80000000 -0.10000000 0.000000
0.75000000 -0.80000000 -0.05000000 0.000000
0.75000000 -0.80000000 0.00000000 0.000000
0.75000000 -0.80000000 0.05000000 0.000000
0.75000000 -0.80000000 0.10000000 0.000000
0.75000000 -0.80000000 0.15000000 0.000000
0.75000000 -0.80000000 0.20000000 0.000000
0.75000000 -0.80000000 0.25000000 0.000000
0.75000000 -0.80000000 0.30000000 0.000000
0.75000000 -0.80000000 0.35000000 0.000000
0.75000000 -0.80000000 0.40000000 0.000000
0.75000000 -0.80000000 0.45000000 0.000000
0.75000000 -0.80000000 0.50000000 0.000000
0.75000000 -0.80000000 0.55000000 0.000000
0.75000000 -0.80000000 0.60000000 0.000000
0.75000000 -0.80000000 0.65000000 0.000000
0.75000000 -0.80000000 0.70000000 0.000000
0.75000000 -0.80000000 0.75000000 0.000000
0.75000000 -0.80000000 0.80000000 0.000000
0.75000000 -0.80000000 0.85000000 0.000000
0.75000000 -0.80000000 0.90000000 0.000000
0.75000000 -0.80000000 0.95000000 0.000000
0.75000000 -0.80000000 1.00000000 0.000000
0.75000000 -0.75000000 -1.00000000 0.000000
0.75000000 -0.75000000 -0.95000000 0.000000
0.75000000 -0.75000000 -0.90000000 0.000000
0.75000000 -0.75000000 -0.85000000 0.000000
0.75000000 -0.75000000 -0.80000000 0.000000
0.75000000 -0.75000000 -0.75000000 0.000000
0.75000000 -0.75000000 -0.70000000 0.000000
0.75000000 -0.75000000 -0.65000000 0.000000
0.75000000 -0.75000000 -0.60000000 0.000000
0.75000000 -0.75000000 -0.55000000 0.000000
0.75000000 -0.75000000 -0.50000000 0.000000
0.75000000 -0.75000000 -0.45000000 0.000000
0.75000000 -0.75000000 -0.40000000 0.000000
0.75000000 -0.75000000 -0.35000000 0.000000
0.75000000 -0.75000000 -0.30000000 0.000000
0.75000000 -0.75000000 -0.25000000 0.000000
0.75000000 -0.75000000 -0.20000000 0.000000
0.75000000 -0.75000000 -0.15000000 0.000000
0.75000000 -0.75000000 -0.10000000 0.000000
0.75000000 -0.75000000 -0.05000000 0.000000
0.75000000 -0.75000000 0.00000000 0.000000
0.75000000 -0.75000000 0.05000000 0.000000
0.75000000 -0.75000000 0.10000000 0.000000
0.75000000 -0.75000000 0.15000000 0.000000
0.75000000 -0.75000000 0.20000000 0.000000
0.75000000 -0.75000000 0.25000000 0.000000
0.75000000 -0.75000000 0.30000000 0.000000
0.75000000 -0.75000000 0.35000000 0.000000
0.75000000 -0.75000000 0.40000000 0.000000
0.75000000 -0.75000000 0.45000000 0.000000
0.75000000 -0.75000000 0.50000000 0.000000
0.75000000 -0.75000000 0.55000000 0.000000
0.75000000 -0.75000000 0.60000000 0.000000
0.75000000 -0.75000000 0.65000000 0.000000
0.75000000 -0.75000000 0.70000000 0.000000
0.75000000 -0.75000000 0.75000000 0.000000
0.75000000 -0.75000000 0.80000000 0.000000
0.75000000 -0.75000000 0.85000000 0.000000
0.75000000 -0.75000000 0.90000000 0.000000
0.75000000 -0.75000000 0.95000000 0.000000
0.75000000 -0.75000000 1.00000000 0.000000
0.75000000 -0.70000000 -1.00000000 0.000000
0.75000000 -0.70000000 -0.95000000 0.000000
0.75000000 -0.70000000 -0.90000000 0.000000
0.75000000 -0.70000000 -0.85000000 0.000000
0.75000000 -0.70000000 -0.80000000 0.000000
0.75000000 -0.70000000 -0.75000000 0.000000
0.75000000 -0.70000000 -0.70000000 0.000000
0.75000000 -0.70000000 -0.65000000 0.000000
0.75000000 -0.70000000 -0.60000000 0.000000
0.75000000 -0.70000000 -0.55000000 0.000000
0.75000000 -0.70000000 -0.50000000 0.000000
0.75000000 -0.70000000 -0.45000000 0.000000
0.75000000 -0.70000000 -0.40000000 0.000000
0.75000000 -0.70000000 -0.35000000 0.000000
0.75000000 -0.70000000 -0.30000000 0.000000
0.75000000 -0.70000000 -0.25000000 0.000000
0.75000000 -0.70000000 -0.20000000 0.000000
0.75000000 -0.70000000 -0.15000000 0.000000
0.75000000 -0.70000000 -0.10000000 0.000000
0.75000000 -0.70000000 -0.05000000 0.020816
0.75000000 -0.70000000 0.00000000 0.028427
0.75000000 -0.70000000 0.05000000 0.026408
0.75000000 -0.70000000 0.10000000 0.000000
0.75000000 -0.70000000 0.15000000 0.000000
0.75000000 -0.70000000 0.20000000 0.000000
0.75000000 -0.70000000 0.25000000 0.000000
0.75000000 -0.70000000 0.30000000 0.000000
0.75000000 -0.70000000 0.35000000 0.000000
0.75000000 -0.70000000 0.40000000 0.000000
0.75000000 -0.70000000 0.45000000 0.000000
0.75000000 -0.70000000 0.50000000 0.000000
0.75000000 -0.70000000 0.55000000 0.000000
0.75000000 -0.70000000 0.60000000 0.000000
0.75000000 -0.70000000 0.65000000 0.000000
0.75000000 -0.70000000 0.70000000 0.000000
0.75000000 -0.70000000 0.75000000 0.000000
0.75000000 -0.70000000 0.80000000 0.000000
0.75000000 -0.70000000 0.85000000 0.000000
0.75000000 -0.70000000 0.90000000 0.000000
0.75000000 -0.70000000 0.95000000 0.000000
0.75000000 -0.70000000 1.00000000 0.000000
0.75000000 -0.65000000 -1.00000000 0.000000
0.75000000 -0.65000000 -0.95000000 0.000000
0.75000000 -0.65000000 -0.90000000 0.000000
0.75000000 -0.65000000 -0.85000000 0.000000
0.75000000 -0.65000000 -0.80000000 0.000000
0.75000000 -0.65000000 -0.75000000 0.000000
0.75000000 -0.65000000 -0.70000000 0.000000
0.75000000 -0.65000000 -0.65000000 0.000000
0.75000000 -0.65000000 -0.60000000 0.000000
0.75000000 -0.65000000 -0.55000000 0.000000
0.75000000 -0.65000000 -0.50000000 0.000000
0.75000000 -0.65000000 -0.45000000 0.000000
0.75000000 -0.65000000 -0.40000000 0.000000
0.75000000 -0.65000000 -0.35000000 0.000000
0.75000000 -0.65000000 -0.30000000 0.000000
0.75000000 -0.65000000 -0.25000000 0.015845
0.75000000 -0.65000000 -0.20000000 0.070913
0.75000000 -0.65000000 -0.15000000 0.172194
0.75000000 -0.65000000 -0.10000000 0.276971
0.75000000 -0.65000000 -0.05000000 0.368388
0.75000000 -0.65000000 0.00000000 0.506951
0.75000000 -0.65000000 0.05000000 0.509437
0.75000000 -0.65000000 0.10000000 0.242796
0.75000000 -0.65000000 0.15000000 0.068350
0.75000000 -0.65000000 0.20000000 0.013981
0.75000000 -0.65000000 0.25000000 0.001398
0.75000000 -0.65000000 0.30000000 0.000000
0.75000000 -0.65000000 0.35000000 0.000000
0.75000000 -0.65000000 0.40000000 0.000000
0.75000000 -0.65000000 0.45000000 0.000000
0.75000000 -0.65000000 0.50000000 0.000000
0.75000000 -0.65000000 0.55000000 0.000000
0.75000000 -0.65000000 0.60000000 0.000000
0.75000000 -0.65000000 0.65000000 0.000000
0.75000000 -0.65000000 0.70000000 0.000000
0.75000000 -0.65000000 0.75000000 0.000000
0.75000000 -0.65000000 0.80000000 0.000000
0.75000000 -0.65000000 0.85000000 0.000000
0.75000000 -0.65000000 0.90000000 0.000000
0.75000000 -0.65000000 0.95000000 0.000000
0.75000000 -0.65000000 1.00000000 0.000000
0.75000000 -0.60000000 -1.00000000 0.000000
0.75000000 -0.60000000 -0.95000000 0.000000
0.75000000 -0.60000000 -0.90000000 0.000000
0.75000000 -0.60000000 -0.85000000 0.000000
0.75000000 -0.60000000 -0.80000000 0.000000
0.75000000 -0.60000000 -0.75000000 0.000000
0.75000000 -0.60000000 -0.70000000 0.000000
0.75000000 -0.60000000 -0.65000000 0.000000
0.75000000 -0.60000000 -0.60000000 0.000000
0.75000000 -0.60000000 -0.55000000 0.000000
0.75000000 -0.60000000 -0.50000000 0.000000
0.75000000 -0.60000000 -0.45000000 0.000000
0.75000000 -0.60000000 -0.40000000 0.000000
0.75000000 -0.60000000 -0.35000000 0.010718
0.75000000 -0.60000000 -0.30000000 0.068971
0.75000000 -0.60000000 -0.25000000 0.188738
0.75000000 -0.60000000 -0.20000000 0.327612
0.75000000 -0.60000000 -0.15000000 0.413359
0.75000000 -0.60000000 -0.10000000 0.479456
0.75000000 -0.60000000 -0.05000000 0.566524
0.75000000 -0.60000000 0.00000000 0.751301
0.75000000 -0.60000000 0.05000000 0.787728
0.75000000 -0.60000000 0.10000000 0.424078
0.75000000 -0.60000000 0.15000000 0.154874
0.75000000 -0.60000000 0.20000000 0.057553
0.75000000 -0.60000000 0.25000000 0.018485
0.75000000 -0.60000000 0.30000000 0.003728
0.75000000 -0.60000000 0.35000000 0.000854
0.75000000 -0.60000000 0.40000000 0.000000
0.75000000 -0.60000000 0.45000000 0.000000
0.75000000 -0.60000000 0.50000000 0.000000
0.75000000 -0.60000000 0.55000000 0.000000
0.75000000 -0.60000000 0.60000000 0.000000
0.75000000 -0.60000000 0.65000000 0.000000
0.75000000 -0.60000000 0.70000000 0.000000
0.75000000 -0.60000000 0.75000000 0.000000
0.75000000 -0.60000000 0.80000000 0.000000
0.75000000 -0.60000000 0.85000000 0.000000
0.75000000 -0.60000000 0.90000000 0.000000
0.75000000 -0.60000000 0.95000000 0.000000
0.75000000 -0.60000000 1.00000000 0.000000
0.75000000 -0.55000000 -1.00000000 0.000000
0.75000000 -0.55000000 -0.95000000 0.000000
0.75000000 -0.55000000 -0.90000000 0.000000
0.75000000 -0.55000000 -0.85000000 0.000000
0.75000000 -0.55000000 -0.80000000 0.000000
0.75000000 -0.55000000 -0.75000000 0.000000
0.75000000 -0.55000000 -0.70000000 0.000000
0.75000000 -0.55000000 -0.65000000 0.000000
0.75000000 -0.55000000 -0.60000000 0.000000
0.75000000 -0.55000000 -0.55000000 0.000000
0.75000000 -0.55000000 -0.50000000 0.000000
0.75000000 -0.55000000 -0.45000000 0.000311
0.75000000 -0.55000000 -0.40000000 0.024000
0.75000000 -0.55000000 -0.35000000 0.114874
0.75000000 -0.55000000 -0.30000000 0.202252
0.75000000 -0.55000000 -0.25000000 0.276816
0.75000000 -0.55000000 -0.20000000 0.355573
0.75000000 -0.55000000 -0.15000000 0.420039
0.75000000 -0.55000000 -0.10000000 0.482563
0.75000000 -0.55000000 -0.05000000 0.565592
0.75000000 -0.55000000 0.00000000 0.741670
0.75000000 -0.55000000 0.05000000 0.792000
0.75000000 -0.55000000 0.10000000 0.419650
0.75000000 -0.55000000 0.15000000 0.164272
0.75000000 -0.55000000 0.20000000 0.058175
0.75000000 -0.55000000 0.25000000 0.021748
0.75000000 -0.55000000 0.30000000 0.011883
0.75000000 -0.55000000 0.35000000 0.009398
0.75000000 -0.55000000 0.40000000 0.002641
0.75000000 -0.55000000 0.45000000 0.000000
0.75000000 -0.55000000 0.50000000 0.000000
0.75000000 -0.55000000 0.55000000 0.000000
0.75000000 -0.55000000 0.60000000 0.000000
0.75000000 -0.55000000 0.65000000 0.000000
0.75000000 -0.55000000 0.70000000 0.000000
0.75000000 -0.55000000 0.75000000 0.000000
0.75000000 -0.55000000 0.80000000 0.000000
0.75000000 -0.55000000 0.85000000 0.000000
0.75000000 -0.55000000 0.90000000 0.000000
0.75000000 -0.55000000 0.95000000 0.000000
0.75000000 -0.55000000 1.00000000 0.000000
0.75000000 -0.50000000 -1.00000000 0.000000
0.75000000 -0.50000000 -0.95000000 0.000000
0.75000000 -0.50000000 -0.90000000 0.000000
0.75000000 -0.50000000 -0.85000000 0.000000
0.75000000 -0.50000000 -0.80000000 0.000000
0.75000000 -0.50000000 -0.75000000 0.000000
0.75000000 -0.50000000 -0.70000000 0.000000
0.75000000 -0.50000000 -0.65000000 0.000000
0.75000000 -0.50000000 -0.60000000 0.000000
0.75000000 -0.50000000 -0.55000000 0.000000
0.75000000 -0.50000000 -0.50000000 0.000388
0.75000000 -0.50000000 -0.45000000 0.024311
0.75000000 -0.50000000 -0.40000000 0.089165
0.75000000 -0.50000000 -0.35000000 0.161010
0.75000000 -0.50000000 -0.30000000 0.212039
0.75000000 -0.50000000 -0.25000000 0.275961
0.75000000 -0.50000000 -0.20000000 0.361786
0.75000000 -0.50000000 -0.15000000 0.416233
0.75000000 -0.50000000 -0.10000000 0.487223
0.75000000 -0.50000000 -0.05000000 0.565126
0.75000000 -0.50000000 0.00000000 0.753553
0.75000000 -0.50000000 0.05000000 0.809942
0.75000000 -0.50000000 0.10000000 0.421359
0.75000000 -0.50000000 0.15000000 0.155029
0.75000000 -0.50000000 0.20000000 0.056155
0.75000000 -0.50000000 0.25000000 0.019417
0.75000000 -0.50000000 0.30000000 0.015456
0.75000000 -0.50000000 0.35000000 0.018252
0.75000000 -0.50000000 0.40000000 0.010951
0.75000000 -0.50000000 0.45000000 0.002641
0.75000000 -0.50000000 0.50000000 0.000155
0.75000000 -0.50000000 0.55000000 0.000000
0.75000000 -0.50000000 0.60000000 0.000000
0.75000000 -0.50000000 0.65000000 0.000000
0.75000000 -0.50000000 0.70000000 0.000000
0.75000000 -0.50000000 0.75000000 0.000000
0.75000000 -0.50000000 0.80000000 0.000000
0.75000000 -0.50000000 0.85000000 0.000000
0.75000000 -0.50000000 0.90000000 0.000000
0.75000000 -0.50000000 0.95000000 0.000000
0.75000000 -0.50000000 1.00000000 0.000000
0.75000000 -0.45000000 -1.00000000 0.000000
0.75000000 -0.45000000 -0.95000000 0.000000
0.75000000 -0.45000000 -0.90000000 0.000000
0.75000000 -0.45000000 -0.85000000 0.000000
0.75000000 -0.45000000 -0.80000000 0.000000
0.75000000 -0.45000000 -0.75000000 0.000000
0.75000000 -0.45000000 -0.70000000 0.000000
0.75000000 -0.45000000 -0.65000000 0.000000
0.75000000 -0.45000000 -0.60000000 0.000000
0.75000000 -0.45000000 -0.55000000 0.000233
0.75000000 -0.45000000 -0.50000000 0.017631
0.75000000 -0.45000000 -0.45000000 0.066408
0.75000000 -0.45000000 -0.40000000 0.115650
0.75000000 -0.45000000 -0.35000000 0.167689
0.75000000 -0.45000000 -0.30000000 0.212039
0.75000000 -0.45000000 -0.25000000 0.283340
0.75000000 -0.45000000 -0.20000000 0.355029
0.75000000 -0.45000000 -0.15000000 0.417553
0.75000000 -0.45000000 -0.10000000 0.483883
0.75000000 -0.45000000 -0.05000000 0.562252
0.75000000 -0.45000000 0.00000000 0.748583
0.75000000 -0.45000000 0.05000000 0.815534
0.75000000 -0.45000000 0.10000000 0.414136
0.75000000 -0.45000000 0.15000000 0.157049
0.75000000 -0.45000000 0.20000000 0.053359
0.75000000 -0.45000000 0.25000000 0.019029
0.75000000 -0.45000000 0.30000000 0.015146
0.75000000 -0.45000000 0.35000000 0.018485
0.75000000 -0.45000000 0.40000000 0.009320
0.75000000 -0.45000000 0.45000000 0.005359
0.75000000 -0.45000000 0.50000000 0.001010
0.75000000 -0.45000000 0.55000000 0.000000
0.75000000 -0.45000000 0.60000000 0.000000
0.75000000 -0.45000000 0.65000000 0.000000
0.75000000 -0.45000000 0.70000000 0.000000
0.75000000 -0.45000000 0.75000000 0.000000
0.75000000 -0.45000000 0.80000000 0.000000
0.75000000 -0.45000000 0.85000000 0.000000
0.75000000 -0.45000000 0.90000000 0.000000
0.75000000 -0.45000000 0.95000000 0.000000
0.75000000 -0.45000000 1.00000000 0.000000
0.75000000 -0.40000000 -1.00000000 0.000000
0.75000000 -0.40000000 -0.95000000 0.000000
0.75000000 -0.40000000 -0.90000000 0.000000
0.75000000 -0.40000000 -0.85000000 0.000000
0.75000000 -0.40000000 -0.80000000 0.000000
0.75000000 -0.40000000 -0.75000000 0.000000
0.75000000 -0.40000000 -0.70000000 0.000000
0.75000000 -0.40000000 -0.65000000 0.000000
0.75000000 -0.40000000 -0.60000000 0.000000
0.75000000 -0.40000000 -0.55000000 0.010175
0.75000000 -0.40000000 -0.50000000 0.039456
0.75000000 -0.40000000 -0.45000000 0.075417
0.75000000 -0.40000000 -0.40000000 0.105942
0.75000000 -0.40000000 -0.35000000 0.160388
0.75000000 -0.40000000 -0.30000000 0.212350
0.75000000 -0.40000000 -0.25000000 0.277825
0.75000000 -0.40000000 -0.20000000 0.360233
0.75000000 -0.40000000 -0.15000000 0.417320
0.75000000 -0.40000000 -0.10000000 0.492505
0.75000000 -0.40000000 -0.05000000 0.563340
0.75000000 -0.40000000 0.00000000 0.760311
0.75000000 -0.40000000 0.05000000 0.825864
0.75000000 -0.40000000 0.10000000 0.417476
0.75000000 -0.40000000 0.15000000 0.148971
0.75000000 -0.40000000 0.20000000 0.049476
0.75000000 -0.40000000 0.25000000 0.019417
0.75000000 -0.40000000 0.30000000 0.018252
0.75000000 -0.40000000 0.35000000 0.017942
0.75000000 -0.40000000 0.40000000 0.009864
0.75000000 -0.40000000 0.45000000 0.005592
0.75000000 -0.40000000 0.50000000 0.003495
0.75000000 -0.40000000 0.55000000 0.000932
0.75000000 -0.40000000 0.60000000 0.000000
0.75000000 -0.40000000 0.65000000 0.000000
0.75000000 -0.40000000 0.70000000 0.000000
0.75000000 -0.40000000 0.75000000 0.000000
0.75000000 -0.40000000 0.80000000 0.000000
0.75000000 -0.40000000 0.85000000 0.000000
0.75000000 -0.40000000 0.90000000 0.000000
0.75000000 -0.40000000 0.95000000 0.000000
0.75000000 -0.40000000 1.00000000 0.000000
0.75000000 -0.35000000 -1.00000000 0.000000
0.75000000 -0.35000000 -0.95000000 0.000000
0.75000000 -0.35000000 -0.90000000 0.000000
0.75000000 -0.35000000 -0.85000000 0.000000
0.75000000 -0.35000000 -0.80000000 0.000000
0.75000000 -0.35000000 -0.75000000 0.000000
0.75000000 -0.35000000 -0.70000000 0.000000
0.75000000 -0.35000000 -0.65000000 0.000000
0.75000000 -0.35000000 -0.60000000 0.001942
0.75000000 -0.35000000 -0.55000000 0.023534
0.75000000 -0.35000000 -0.50000000 0.053126
0.75000000 -0.35000000 -0.45000000 0.075107
0.75000000 -0.35000000 -0.40000000 0.116194
0.75000000 -0.35000000 -0.35000000 0.163728
0.75000000 -0.35000000 -0.30000000 0.211495
0.75000000 -0.35000000 -0.25000000 0.281398
0.75000000 -0.35000000 -0.20000000 0.364039
0.75000000 -0.35000000 -0.15000000 0.411883
0.75000000 -0.35000000 -0.10000000 0.485359
0.75000000 -0.35000000 -0.05000000 0.563107
0.75000000 -0.35000000 0.00000000 0.754097
0.75000000 -0.35000000 0.05000000 0.832233
0.75000000 -0.35000000 0.10000000 0.412971
0.75000000 -0.35000000 0.15000000 0.146874
0.75000000 -0.35000000 0.20000000 0.048466
0.75000000 -0.35000000 0.25000000 0.019573
0.75000000 -0.35000000 0.30000000 0.019806
0.75000000 -0.35000000 0.35000000 0.014447
0.75000000 -0.35000000 0.40000000 0.007534
0.75000000 -0.35000000 0.45000000 0.004583
0.75000000 -0.35000000 0.50000000 0.005437
0.75000000 -0.35000000 0.55000000 0.003107
0.75000000 -0.35000000 0.60000000 0.000466
0.75000000 -0.35000000 0.65000000 0.000000
0.75000000 -0.35000000 0.70000000 0.000000
0.75000000 -0.35000000 0.75000000 0.000000
0.75000000 -0.35000000 0.80000000 0.000000
0.75000000 -0.35000000 0.85000000 0.000000
0.75000000 -0.35000000 0.90000000 0.000000
0.75000000 -0.35000000 0.95000000 0.000000
0.75000000 -0.35000000 1.00000000 0.000000
0.75000000 -0.30000000 -1.00000000 0.000000
0.75000000 -0.30000000 -0.95000000 0.000000
0.75000000 -0.30000000 -0.90000000 0.000000
0.75000000 -0.30000000 -0.85000000 0.000000
0.75000000 -0.30000000 -0.80000000 0.000000
0.75000000 -0.30000000 -0.75000000 0.000000
0.75000000 -0.30000000 -0.70000000 0.000000
0.75000000 -0.30000000 -0.65000000 0.000000
0.75000000 -0.30000000 -0.60000000 0.010796
0.75000000 -0.30000000 -0.55000000 0.036039
0.75000000 -0.30000000 -0.50000000 0.046990
0.75000000 -0.30000000 -0.45000000 0.079146
0.75000000 -0.30000000 -0.40000000 0.104388
0.75000000 -0.30000000 -0.35000000 0.157437
0.75000000 -0.30000000 -0.30000000 0.212971
0.75000000 -0.30000000 -0.25000000 0.278990
0.75000000 -0.30000000 -0.20000000 0.357670
0.75000000 -0.30000000 -0.15000000 0.417553
0.75000000 -0.30000000 -0.10000000 0.491650
0.75000000 -0.30000000 -0.05000000 0.571961
0.75000000 -0.30000000 0.00000000 0.767922
0.75000000 -0.30000000 0.05000000 0.836427
0.75000000 -0.30000000 0.10000000 0.415379
0.75000000 -0.30000000 0.15000000 0.141515
0.75000000 -0.30000000 0.20000000 0.044194
0.75000000 -0.30000000 0.25000000 0.023146
0.75000000 -0.30000000 0.30000000 0.020194
0.75000000 -0.30000000 0.35000000 0.013670
0.75000000 -0.30000000 0.40000000 0.006990
0.75000000 -0.30000000 0.45000000 0.005359
0.75000000 -0.30000000 0.50000000 0.004505
0.75000000 -0.30000000 0.55000000 0.003883
0.75000000 -0.30000000 0.60000000 0.001010
0.75000000 -0.30000000 0.65000000 0.000000
0.75000000 -0.30000000 0.70000000 0.000000
0.75000000 -0.30000000 0.75000000 0.000000
0.75000000 -0.30000000 0.80000000 0.000000
0.75000000 -0.30000000 0.85000000 0.000000
0.75000000 -0.30000000 0.90000000 0.000000
0.75000000 -0.30000000 0.95000000 0.000000
0.75000000 -0.30000000 1.00000000 0.000000
0.75000000 -0.25000000 -1.00000000 0.000000
0.75000000 -0.25000000 -0.95000000 0.000000
0.75000000 -0.25000000 -0.90000000 0.000000
0.75000000 -0.25000000 -0.85000000 0.000000
0.75000000 -0.25000000 -0.80000000 0.000000
0.75000000 -0.25000000 -0.75000000 0.000000
0.75000000 -0.25000000 -0.70000000 0.000000
0.75000000 -0.25000000 -0.65000000 0.000932
0.75000000 -0.25000000 -0.60000000 0.020505
0.75000000 -0.25000000 -0.55000000 0.039223
0.75000000 -0.25000000 -0.50000000 0.052893
0.75000000 -0.25000000 -0.45000000 0.075107
0.75000000 -0.25000000 -0.40000000 0.110835
0.75000000 -0.25000000 -0.35000000 0.169320
0.75000000 -0.25000000 -0.30000000 0.209709
0.75000000 -0.25000000 -0.25000000 0.280466
0.75000000 -0.25000000 -0.20000000 0.364117
0.75000000 -0.25000000 -0.15000000 0.409786
0.75000000 -0.25000000 -0.10000000 0.492272
0.75000000 -0.25000000 -0.05000000 0.564272
0.75000000 -0.25000000 0.00000000 0.761320
0.75000000 -0.25000000 0.05000000 0.845670
0.75000000 -0.25000000 0.10000000 0.408311
0.75000000 -0.25000000 0.15000000 0.138796
0.75000000 -0.25000000 0.20000000 0.043728
0.75000000 -0.25000000 0.25000000 0.022291
0.75000000 -0.25000000 0.30000000 0.020272
0.75000000 -0.25000000 0.35000000 0.010252
0.75000000 -0.25000000 0.40000000 0.006369
0.75000000 -0.25000000 0.45000000 0.004893
0.75000000 -0.25000000 0.50000000 0.004971
0.75000000 -0.25000000 0.55000000 0.003650
0.75000000 -0.25000000 0.60000000 0.002641
0.75000000 -0.25000000 0.65000000 0.000233
0.75000000 -0.25000000 0.70000000 0.000000
0.75000000 -0.25000000 0.75000000 0.000000
0.75000000 -0.25000000 0.80000000 0.000000
0.75000000 -0.25000000 0.85000000 0.000000
0.75000000 -0.25000000 0.90000000 0.000000
0.75000000 -0.25000000 0.95000000 0.000000
0.75000000 -0.25000000 1.00000000 0.000000
0.75000000 -0.20000000 -1.00000000 0.000000
0.75000000 -0.20000000 -0.95000000 0.000000
0.75000000 -0.20000000 -0.90000000 0.000000
0.75000000 -0.20000000 -0.85000000 0.000000
0.75000000 -0.20000000 -0.80000000 0.000000
0.75000000 -0.20000000 -0.75000000 0.000000
0.75000000 -0.20000000 -0.70000000 0.000000
0.75000000 -0.20000000 -0.65000000 0.005049
0.75000000 -0.20000000 -0.60000000 0.024155
0.75000000 -0.20000000 -0.55000000 0.036816
0.75000000 -0.20000000 -0.50000000 0.051340
0.75000000 -0.20000000 -0.45000000 0.075417
0.75000000 -0.20000000 -0.40000000 0.104932
0.75000000 -0.20000000 -0.35000000 0.154563
0.75000000 -0.20000000 -0.30000000 0.216155
0.75000000 -0.20000000 -0.25000000 0.282330
0.75000000 -0.20000000 -0.20000000 0.347883
0.75000000 -0.20000000 -0.15000000 0.416854
0.75000000 -0.20000000 -0.10000000 0.489165
0.75000000 -0.20000000 -0.05000000 0.582602
0.75000000 -0.20000000 0.00000000 0.777942
0.75000000 -0.20000000 0.05000000 0.851650
0.75000000 -0.20000000 0.10000000 0.409709
0.75000000 -0.20000000 0.15000000 0.132039
0.75000000 -0.20000000 0.20000000 0.042951
0.75000000 -0.20000000 0.25000000 0.023845
0.75000000 -0.20000000 0.30000000 0.018097
0.75000000 -0.20000000 0.35000000 0.010175
0.75000000 -0.20000000 0.40000000 0.006524
0.75000000 -0.20000000 0.45000000 0.005049
0.75000000 -0.20000000 0.50000000 0.004660
0.75000000 -0.20000000 0.55000000 0.003806
0.75000000 -0.20000000 0.60000000 0.003573
0.75000000 -0.20000000 0.65000000 0.000699
0.75000000 -0.20000000 0.70000000 0.000000
0.75000000 -0.20000000 0.75000000 0.000000
0.75000000 -0.20000000 0.80000000 0.000000
0.75000000 -0.20000000 0.85000000 0.000000
0.75000000 -0.20000000 0.90000000 0.000000
0.75000000 -0.20000000 0.95000000 0.000000
0.75000000 -0.20000000 1.00000000 0.000000
0.75000000 -0.15000000 -1.00000000 0.000000
0.75000000 -0.15000000 -0.95000000 0.000000
0.75000000 -0.15000000 -0.90000000 0.000000
0.75000000 -0.15000000 -0.85000000 0.000000
0.75000000 -0.15000000 -0.80000000 0.000000
0.75000000 -0.15000000 -0.75000000 0.000000
0.75000000 -0.15000000 -0.70000000 0.000000
0.75000000 -0.15000000 -0.65000000 0.007379
0.75000000 -0.15000000 -0.60000000 0.027417
0.75000000 -0.15000000 -0.55000000 0.039845
0.75000000 -0.15000000 -0.50000000 0.053126
0.75000000 -0.15000000 -0.45000000 0.075340
0.75000000 -0.15000000 -0.40000000 0.112466
0.75000000 -0.15000000 -0.35000000 0.164427
0.75000000 -0.15000000 -0.30000000 0.211029
0.75000000 -0.15000000 -0.25000000 0.281087
0.75000000 -0.15000000 -0.20000000 0.357592
0.75000000 -0.15000000 -0.15000000 0.414680
0.75000000 -0.15000000 -0.10000000 0.490874
0.75000000 -0.15000000 -0.05000000 0.564505
0.75000000 -0.15000000 0.00000000 0.777165
0.75000000 -0.15000000 0.05000000 0.850641
0.75000000 -0.15000000 0.10000000 0.411573
0.75000000 -0.15000000 0.15000000 0.128233
0.75000000 -0.15000000 0.20000000 0.042563
0.75000000 -0.15000000 0.25000000 0.023767
0.75000000 -0.15000000 0.30000000 0.015301
0.75000000 -0.15000000 0.35000000 0.009398
0.75000000 -0.15000000 0.40000000 0.006680
0.75000000 -0.15000000 0.45000000 0.005126
0.75000000 -0.15000000 0.50000000 0.003806
0.75000000 -0.15000000 0.55000000 0.003650
0.75000000 -0.15000000 0.60000000 0.003806
0.75000000 -0.15000000 0.65000000 0.001631
0.75000000 -0.15000000 0.70000000 0.000000
0.75000000 -0.15000000 0.75000000 0.000000
0.75000000 -0.15000000 0.80000000 0.000000
0.75000000 -0.15000000 0.85000000 0.000000
0.75000000 -0.15000000 0.90000000 0.000000
0.75000000 -0.15000000 0.95000000 0.000000
0.75000000 -0.15000000 1.00000000 0.000000
0.75000000 -0.10000000 -1.00000000 0.000000
0.75000000 -0.10000000 -0.95000000 0.000000
0.75000000 -0.10000000 -0.90000000 0.000000
0.75000000 -0.10000000 -0.85000000 0.000000
0.75000000 -0.10000000 -0.80000000 0.000000
0.75000000 -0.10000000 -0.75000000 0.000000
0.75000000 -0.10000000 -0.70000000 0.000155
