//X Y Z Consensus 
0.90000000 -1.00000000 0.25000000 0.090720
1.00000000 -0.95000000 -0.15000000 0.090730
0.90000000 0.85000000 -0.15000000 0.090740
-0.95000000 -0.95000000 -0.40000000 0.090758
-0.35000000 -0.80000000 -0.70000000 0.090766
-0.75000000 0.65000000 0.60000000 0.090769
-0.15000000 0.65000000 0.80000000 0.090771
-0.20000000 -0.90000000 0.75000000 0.090775
-0.75000000 0.35000000 -0.70000000 0.090775
-0.65000000 0.45000000 0.75000000 0.090777
1.00000000 -0.65000000 -0.45000000 0.090780
0.25000000 -0.20000000 -0.80000000 0.090787
-0.20000000 -0.65000000 -0.75000000 0.090801
-0.45000000 0.05000000 -0.80000000 0.090803
0.45000000 0.65000000 0.70000000 0.090807
-1.00000000 1.00000000 0.10000000 0.090808
0.80000000 1.00000000 -0.15000000 0.090810
0.65000000 0.15000000 -0.70000000 0.090815
0.40000000 -0.50000000 0.85000000 0.090825
0.50000000 0.05000000 -0.75000000 0.090833
-0.70000000 0.05000000 -0.75000000 0.090836
-0.90000000 -0.40000000 0.70000000 0.090843
-0.35000000 0.50000000 -0.75000000 0.090844
0.35000000 0.35000000 0.90000000 0.090852
0.80000000 -0.80000000 -0.45000000 0.090858
0.05000000 -0.65000000 -0.75000000 0.090863
-0.60000000 -0.35000000 0.85000000 0.090867
0.85000000 -0.85000000 0.40000000 0.090872
0.35000000 -0.45000000 -0.75000000 0.090874
-0.25000000 0.80000000 0.70000000 0.090893
0.35000000 0.90000000 0.60000000 0.090897
0.95000000 0.20000000 -0.60000000 0.090904
-0.35000000 -0.30000000 -0.80000000 0.090904
-0.35000000 -0.70000000 0.80000000 0.090907
0.75000000 -0.40000000 0.70000000 0.090923
0.90000000 0.55000000 0.50000000 0.090929
1.00000000 0.80000000 -0.15000000 0.090933
-0.65000000 -0.90000000 0.60000000 0.090936
0.05000000 -0.95000000 -0.70000000 0.090956
-0.85000000 -0.45000000 0.70000000 0.090966
0.75000000 -0.05000000 0.75000000 0.090971
0.20000000 -0.85000000 0.75000000 0.090977
0.30000000 -0.50000000 -0.75000000 0.090995
-0.55000000 0.80000000 -0.60000000 0.091014
0.45000000 0.65000000 -0.65000000 0.091023
-0.85000000 0.15000000 0.75000000 0.091037
-0.50000000 -0.70000000 0.75000000 0.091038
0.40000000 0.30000000 -0.75000000 0.091041
0.30000000 0.95000000 0.60000000 0.091044
-0.55000000 -0.80000000 -0.65000000 0.091049
0.35000000 -0.75000000 0.75000000 0.091050
-0.50000000 0.85000000 0.60000000 0.091051
-0.15000000 0.50000000 0.90000000 0.091056
0.40000000 0.20000000 0.95000000 0.091057
0.15000000 0.85000000 -0.65000000 0.091070
0.10000000 -0.90000000 -0.70000000 0.091072
-0.65000000 0.65000000 0.65000000 0.091080
-0.45000000 -0.10000000 -0.80000000 0.091081
1.00000000 -0.45000000 -0.55000000 0.091082
0.65000000 -0.80000000 -0.55000000 0.091099
-0.45000000 -0.95000000 -0.65000000 0.091101
0.40000000 1.00000000 0.55000000 0.091106
0.75000000 -0.35000000 -0.65000000 0.091108
1.00000000 -1.00000000 -0.10000000 0.091113
-0.60000000 0.50000000 0.75000000 0.091126
0.90000000 -0.30000000 0.65000000 0.091126
-0.80000000 0.40000000 0.70000000 0.091127
0.20000000 -0.50000000 0.95000000 0.091131
0.60000000 -0.50000000 0.75000000 0.091132
0.20000000 0.20000000 -0.80000000 0.091136
0.05000000 0.45000000 0.95000000 0.091141
0.65000000 0.45000000 0.70000000 0.091141
0.55000000 -0.45000000 -0.70000000 0.091149
-0.85000000 -0.75000000 -0.55000000 0.091179
0.55000000 -0.65000000 -0.65000000 0.091189
-0.75000000 -0.60000000 -0.65000000 0.091193
-0.95000000 0.90000000 0.25000000 0.091201
0.90000000 -0.95000000 -0.25000000 0.091212
0.95000000 -0.70000000 0.45000000 0.091230
-0.80000000 0.90000000 -0.40000000 0.091237
0.35000000 -0.90000000 -0.65000000 0.091237
-0.60000000 0.50000000 -0.70000000 0.091238
-0.25000000 0.30000000 -0.80000000 0.091241
0.00000000 -1.00000000 -0.70000000 0.091241
-0.75000000 0.10000000 0.80000000 0.091249
-0.65000000 -0.25000000 -0.75000000 0.091250
-0.85000000 -0.25000000 0.75000000 0.091256
-0.70000000 0.40000000 -0.70000000 0.091266
0.70000000 0.35000000 -0.65000000 0.091273
0.00000000 -0.40000000 -0.80000000 0.091274
-0.80000000 1.00000000 -0.35000000 0.091275
-0.70000000 -0.10000000 -0.75000000 0.091282
0.05000000 0.55000000 -0.75000000 0.091283
0.15000000 0.25000000 -0.80000000 0.091290
0.50000000 -0.10000000 -0.75000000 0.091291
0.40000000 -0.30000000 0.95000000 0.091299
-0.90000000 0.00000000 0.75000000 0.091313
0.05000000 0.65000000 0.80000000 0.091315
0.35000000 -0.45000000 0.90000000 0.091326
0.90000000 0.25000000 -0.60000000 0.091326
-0.45000000 0.00000000 -0.80000000 0.091328
0.95000000 0.10000000 0.65000000 0.091336
-1.00000000 0.65000000 0.50000000 0.091347
0.45000000 0.45000000 0.80000000 0.091353
-0.60000000 0.60000000 0.70000000 0.091355
-0.90000000 -0.10000000 0.75000000 0.091364
0.35000000 0.80000000 0.65000000 0.091390
-0.55000000 -0.40000000 -0.75000000 0.091396
-0.75000000 -0.20000000 0.80000000 0.091399
-0.45000000 -0.05000000 -0.80000000 0.091420
-0.40000000 0.15000000 -0.80000000 0.091424
-0.55000000 0.00000000 0.95000000 0.091438
-0.50000000 0.10000000 1.00000000 0.091440
0.50000000 0.00000000 -0.75000000 0.091443
-1.00000000 0.50000000 -0.60000000 0.091454
0.25000000 0.10000000 -0.80000000 0.091466
0.50000000 -0.50000000 0.80000000 0.091469
0.75000000 -0.65000000 0.60000000 0.091480
-1.00000000 -0.45000000 -0.65000000 0.091501
0.80000000 0.85000000 0.30000000 0.091501
0.55000000 -0.80000000 -0.60000000 0.091502
0.45000000 0.20000000 -0.75000000 0.091503
-0.15000000 -0.40000000 -0.80000000 0.091507
-0.55000000 -0.10000000 0.95000000 0.091509
-0.65000000 0.45000000 -0.70000000 0.091511
-0.90000000 0.70000000 -0.50000000 0.091515
0.15000000 -0.75000000 0.80000000 0.091526
-0.15000000 -0.55000000 0.95000000 0.091538
-0.30000000 -0.55000000 0.90000000 0.091551
-0.15000000 0.95000000 0.65000000 0.091558
0.15000000 -0.85000000 -0.70000000 0.091558
-0.45000000 -0.50000000 -0.75000000 0.091566
0.55000000 0.15000000 0.85000000 0.091571
0.10000000 -0.90000000 0.75000000 0.091576
-0.70000000 0.00000000 -0.75000000 0.091579
0.70000000 0.20000000 0.75000000 0.091582
0.50000000 -0.05000000 -0.75000000 0.091594
0.05000000 0.50000000 0.90000000 0.091598
0.15000000 -0.60000000 -0.75000000 0.091623
-0.95000000 0.15000000 -0.70000000 0.091629
0.65000000 0.85000000 -0.45000000 0.091639
-0.25000000 -0.65000000 0.85000000 0.091648
-0.95000000 0.40000000 0.65000000 0.091650
0.10000000 -0.35000000 -0.80000000 0.091651
-0.20000000 0.55000000 -0.75000000 0.091652
-0.15000000 0.90000000 -0.65000000 0.091654
0.70000000 -1.00000000 -0.45000000 0.091657
-0.50000000 -0.20000000 1.00000000 0.091668
0.25000000 0.45000000 -0.75000000 0.091672
-0.10000000 -1.00000000 -0.70000000 0.091690
-0.30000000 -0.60000000 -0.75000000 0.091694
-0.95000000 0.25000000 0.70000000 0.091709
0.85000000 0.80000000 0.30000000 0.091713
-0.70000000 -0.05000000 -0.75000000 0.091727
-1.00000000 -0.60000000 0.60000000 0.091730
0.55000000 0.55000000 -0.65000000 0.091732
-0.80000000 0.75000000 0.50000000 0.091743
-0.55000000 0.90000000 0.55000000 0.091746
-0.80000000 -0.90000000 -0.50000000 0.091774
-0.05000000 -0.40000000 -0.80000000 0.091777
-0.85000000 0.85000000 -0.40000000 0.091786
1.00000000 0.75000000 -0.25000000 0.091807
-0.65000000 -0.55000000 0.75000000 0.091808
-0.40000000 -0.75000000 -0.70000000 0.091822
1.00000000 -0.25000000 -0.60000000 0.091825
-0.45000000 0.25000000 0.95000000 0.091829
0.55000000 -0.25000000 0.85000000 0.091831
-0.50000000 -0.45000000 -0.75000000 0.091832
-0.90000000 -0.05000000 0.75000000 0.091852
-0.10000000 -0.40000000 -0.80000000 0.091856
-0.15000000 -0.95000000 -0.70000000 0.091859
-0.35000000 0.85000000 0.65000000 0.091860
0.20000000 -0.25000000 -0.80000000 0.091874
0.25000000 -0.15000000 -0.80000000 0.091885
0.50000000 0.60000000 -0.65000000 0.091894
0.15000000 0.80000000 0.70000000 0.091895
-0.45000000 0.75000000 -0.65000000 0.091898
0.75000000 0.25000000 -0.65000000 0.091899
0.40000000 -0.60000000 0.80000000 0.091922
-0.05000000 -1.00000000 -0.70000000 0.091925
0.60000000 -0.35000000 -0.70000000 0.091930
0.20000000 0.45000000 0.90000000 0.091931
0.75000000 0.45000000 -0.60000000 0.091931
-0.35000000 -0.60000000 0.85000000 0.091934
-0.15000000 -0.65000000 -0.75000000 0.091934
-1.00000000 0.95000000 0.15000000 0.091934
-0.60000000 0.85000000 0.55000000 0.091946
-0.45000000 0.20000000 1.00000000 0.091947
0.00000000 -0.65000000 -0.75000000 0.091959
-0.55000000 -0.05000000 0.95000000 0.091963
-0.60000000 0.00000000 0.90000000 0.091975
-0.80000000 -0.50000000 0.70000000 0.091978
-0.20000000 0.40000000 1.00000000 0.091999
0.05000000 -0.55000000 0.95000000 0.092008
-0.40000000 -0.20000000 -0.80000000 0.092016
0.95000000 -0.20000000 0.65000000 0.092020
-0.35000000 0.35000000 0.95000000 0.092022
1.00000000 0.00000000 0.65000000 0.092024
0.05000000 0.95000000 0.65000000 0.092033
-0.60000000 0.25000000 -0.75000000 0.092035
0.05000000 0.30000000 -0.80000000 0.092037
-0.60000000 -0.10000000 0.90000000 0.092037
0.60000000 -1.00000000 0.55000000 0.092041
-0.70000000 0.95000000 -0.45000000 0.092042
-0.85000000 -0.85000000 0.50000000 0.092072
-1.00000000 -0.20000000 -0.70000000 0.092113
0.90000000 0.35000000 0.60000000 0.092123
0.25000000 0.50000000 0.85000000 0.092141
0.30000000 0.65000000 0.75000000 0.092142
-0.90000000 0.40000000 -0.65000000 0.092142
-0.95000000 -0.35000000 0.70000000 0.092143
-0.30000000 0.25000000 -0.80000000 0.092144
-0.75000000 0.45000000 0.70000000 0.092158
0.15000000 -0.30000000 -0.80000000 0.092159
0.35000000 0.35000000 -0.75000000 0.092164
0.55000000 0.35000000 -0.70000000 0.092190
-0.35000000 0.20000000 -0.80000000 0.092198
0.85000000 -0.40000000 -0.60000000 0.092198
0.45000000 0.55000000 0.75000000 0.092204
0.00000000 0.90000000 -0.65000000 0.092206
0.75000000 1.00000000 -0.25000000 0.092207
-0.10000000 0.45000000 0.95000000 0.092215
0.70000000 -0.30000000 0.75000000 0.092224
-0.25000000 -0.35000000 -0.80000000 0.092236
-0.30000000 0.35000000 1.00000000 0.092241
0.45000000 0.05000000 0.95000000 0.092246
1.00000000 -0.10000000 0.65000000 0.092257
-0.10000000 0.65000000 0.80000000 0.092266
-0.45000000 -0.35000000 0.95000000 0.092266
-0.80000000 -0.55000000 -0.65000000 0.092268
-0.65000000 0.60000000 -0.65000000 0.092269
0.90000000 -0.85000000 0.35000000 0.092270
0.80000000 0.35000000 0.65000000 0.092273
0.95000000 -1.00000000 -0.15000000 0.092278
-0.25000000 0.90000000 0.65000000 0.092317
-0.45000000 -0.30000000 1.00000000 0.092333
0.20000000 -0.80000000 -0.70000000 0.092335
0.85000000 -0.55000000 -0.55000000 0.092336
-0.70000000 0.85000000 -0.50000000 0.092340
0.45000000 -0.15000000 0.95000000 0.092341
-0.55000000 -0.65000000 0.75000000 0.092346
-0.90000000 -0.80000000 -0.50000000 0.092349
0.25000000 0.05000000 -0.80000000 0.092350
-0.50000000 -1.00000000 0.65000000 0.092358
0.30000000 0.90000000 -0.60000000 0.092372
0.55000000 0.45000000 0.75000000 0.092377
-0.15000000 -0.60000000 0.90000000 0.092378
0.30000000 0.40000000 -0.75000000 0.092384
-0.50000000 -0.85000000 -0.65000000 0.092390
0.50000000 -0.70000000 -0.65000000 0.092390
-0.60000000 0.95000000 0.50000000 0.092418
1.00000000 0.15000000 -0.60000000 0.092421
-0.85000000 -0.95000000 -0.45000000 0.092426
0.80000000 -1.00000000 -0.35000000 0.092427
0.90000000 -0.50000000 -0.55000000 0.092427
-0.65000000 0.15000000 -0.75000000 0.092432
0.65000000 -0.20000000 -0.70000000 0.092434
-0.20000000 -0.90000000 -0.70000000 0.092449
0.00000000 0.55000000 -0.75000000 0.092449
0.85000000 0.80000000 -0.30000000 0.092479
-0.60000000 -0.05000000 0.90000000 0.092480
0.00000000 0.45000000 0.95000000 0.092483
-0.95000000 -0.70000000 0.55000000 0.092490
0.45000000 -0.55000000 0.80000000 0.092493
-0.10000000 -0.65000000 -0.75000000 0.092500
-0.05000000 -0.65000000 -0.75000000 0.092507
0.25000000 -0.70000000 0.80000000 0.092508
0.75000000 0.75000000 0.45000000 0.092512
1.00000000 0.40000000 0.55000000 0.092513
-0.20000000 0.30000000 -0.80000000 0.092514
-0.40000000 0.55000000 0.80000000 0.092516
-1.00000000 0.90000000 -0.25000000 0.092520
0.95000000 0.30000000 0.60000000 0.092520
0.00000000 -0.95000000 -0.70000000 0.092528
-0.90000000 1.00000000 0.20000000 0.092531
0.00000000 0.65000000 0.80000000 0.092544
0.70000000 0.80000000 0.45000000 0.092545
-0.30000000 0.60000000 0.80000000 0.092558
0.45000000 0.20000000 0.90000000 0.092565
0.55000000 0.65000000 0.65000000 0.092575
0.90000000 0.60000000 -0.45000000 0.092578
0.25000000 -0.10000000 -0.80000000 0.092591
-0.85000000 0.65000000 -0.55000000 0.092603
-0.10000000 0.50000000 0.90000000 0.092611
-0.60000000 -0.60000000 0.75000000 0.092630
-0.95000000 -0.50000000 0.65000000 0.092637
0.45000000 -1.00000000 -0.60000000 0.092637
-0.35000000 -0.45000000 0.95000000 0.092649
1.00000000 0.35000000 -0.55000000 0.092653
0.70000000 -0.80000000 0.55000000 0.092653
0.80000000 0.85000000 -0.30000000 0.092655
-0.65000000 0.55000000 0.70000000 0.092656
-0.35000000 -1.00000000 0.70000000 0.092656
-0.15000000 0.55000000 -0.75000000 0.092683
0.15000000 -0.65000000 0.85000000 0.092687
0.65000000 0.05000000 0.80000000 0.092705
-0.85000000 -0.30000000 -0.70000000 0.092707
0.50000000 0.25000000 0.85000000 0.092709
1.00000000 -0.05000000 0.65000000 0.092714
0.60000000 0.25000000 -0.70000000 0.092715
0.15000000 0.50000000 -0.75000000 0.092716
0.70000000 -0.90000000 0.50000000 0.092742
0.65000000 0.55000000 0.65000000 0.092751
-0.20000000 -0.50000000 1.00000000 0.092765
-0.70000000 0.60000000 0.65000000 0.092770
0.35000000 0.85000000 -0.60000000 0.092775
0.10000000 0.40000000 1.00000000 0.092787
-0.40000000 0.10000000 -0.80000000 0.092788
0.50000000 0.05000000 0.90000000 0.092789
0.20000000 -0.55000000 0.90000000 0.092790
0.65000000 0.30000000 0.75000000 0.092793
0.80000000 -0.20000000 -0.65000000 0.092798
-0.10000000 0.90000000 -0.65000000 0.092805
0.65000000 0.10000000 -0.70000000 0.092808
0.45000000 -0.25000000 -0.75000000 0.092813
0.80000000 0.75000000 -0.40000000 0.092823
-0.70000000 0.50000000 0.70000000 0.092823
0.25000000 0.00000000 -0.80000000 0.092827
0.45000000 -0.30000000 0.90000000 0.092829
-0.25000000 0.70000000 -0.70000000 0.092830
0.20000000 0.15000000 -0.80000000 0.092833
-0.90000000 -0.25000000 -0.70000000 0.092836
-0.35000000 1.00000000 0.60000000 0.092843
-0.40000000 0.45000000 -0.75000000 0.092843
-0.05000000 0.45000000 0.95000000 0.092843
0.80000000 0.70000000 0.45000000 0.092858
-0.95000000 -0.85000000 0.45000000 0.092859
0.10000000 0.70000000 -0.70000000 0.092861
-0.05000000 0.65000000 0.80000000 0.092862
0.05000000 -0.60000000 0.90000000 0.092875
0.40000000 0.85000000 0.60000000 0.092877
-0.35000000 -0.80000000 0.75000000 0.092883
0.00000000 0.50000000 0.90000000 0.092887
-0.20000000 0.55000000 0.85000000 0.092891
0.65000000 -0.15000000 0.80000000 0.092892
-0.30000000 -0.45000000 1.00000000 0.092893
0.50000000 -0.15000000 0.90000000 0.092894
-0.40000000 0.30000000 0.95000000 0.092896
-0.35000000 -0.25000000 -0.80000000 0.092896
0.25000000 -0.05000000 -0.80000000 0.092905
0.40000000 -0.35000000 -0.75000000 0.092913
-0.95000000 0.60000000 -0.55000000 0.092941
1.00000000 -0.90000000 -0.20000000 0.092941
-0.45000000 0.70000000 0.70000000 0.092945
-0.45000000 -0.70000000 -0.70000000 0.092955
-0.30000000 -0.30000000 -0.80000000 0.092965
-0.95000000 -0.85000000 -0.45000000 0.092966
-0.80000000 0.60000000 0.60000000 0.092971
0.05000000 -0.35000000 -0.80000000 0.092986
-0.10000000 -0.95000000 -0.70000000 0.092987
-0.05000000 0.90000000 -0.65000000 0.092989
0.65000000 -0.55000000 0.70000000 0.092990
-0.65000000 0.10000000 0.85000000 0.092994
-0.80000000 -0.35000000 -0.70000000 0.093008
0.00000000 0.30000000 -0.80000000 0.093026
-0.05000000 0.55000000 -0.75000000 0.093075
1.00000000 -1.00000000 0.10000000 0.093090
0.50000000 -0.35000000 0.85000000 0.093104
0.45000000 -0.90000000 0.65000000 0.093109
0.40000000 0.95000000 -0.55000000 0.093141
0.10000000 0.25000000 -0.80000000 0.093142
-0.65000000 0.30000000 0.80000000 0.093146
0.50000000 0.50000000 0.75000000 0.093148
-0.10000000 -0.55000000 0.95000000 0.093152
-0.10000000 0.55000000 -0.75000000 0.093155
0.55000000 -0.90000000 0.60000000 0.093158
-0.65000000 -0.20000000 0.85000000 0.093160
0.30000000 0.75000000 -0.65000000 0.093166
0.80000000 0.10000000 -0.65000000 0.093173
0.75000000 0.80000000 -0.40000000 0.093174
-0.40000000 -0.15000000 -0.80000000 0.093192
0.30000000 0.60000000 -0.70000000 0.093199
-0.05000000 -0.95000000 -0.70000000 0.093210
0.70000000 -0.60000000 -0.60000000 0.093218
-0.05000000 0.50000000 0.90000000 0.093226
-0.75000000 0.80000000 -0.50000000 0.093232
0.95000000 -0.95000000 0.20000000 0.093235
-0.60000000 0.75000000 -0.60000000 0.093248
0.55000000 -1.00000000 -0.55000000 0.093256
-1.00000000 0.10000000 -0.70000000 0.093259
0.50000000 -0.50000000 -0.70000000 0.093263
0.25000000 0.85000000 0.65000000 0.093265
0.25000000 -0.75000000 -0.70000000 0.093266
0.15000000 0.90000000 0.65000000 0.093273
0.80000000 0.15000000 0.70000000 0.093290
-0.50000000 0.15000000 0.95000000 0.093293
0.65000000 0.85000000 0.45000000 0.093295
0.50000000 0.60000000 0.70000000 0.093300
-0.75000000 -0.55000000 0.70000000 0.093308
0.50000000 0.95000000 -0.50000000 0.093316
-0.15000000 0.30000000 -0.80000000 0.093321
-0.95000000 0.50000000 0.60000000 0.093321
0.85000000 0.30000000 -0.60000000 0.093333
-0.45000000 -0.85000000 0.70000000 0.093334
-0.65000000 -0.20000000 -0.75000000 0.093348
1.00000000 0.55000000 -0.45000000 0.093351
-0.60000000 -0.30000000 -0.75000000 0.093355
0.20000000 -0.20000000 -0.80000000 0.093357
0.70000000 -0.60000000 0.65000000 0.093358
0.45000000 -0.75000000 -0.65000000 0.093366
-0.10000000 0.95000000 0.65000000 0.093368
-0.95000000 -0.45000000 -0.65000000 0.093383
0.20000000 -0.55000000 -0.75000000 0.093384
0.40000000 -0.70000000 0.75000000 0.093387
0.00000000 -0.55000000 0.95000000 0.093390
0.15000000 0.20000000 -0.80000000 0.093397
0.75000000 -1.00000000 -0.40000000 0.093403
-0.85000000 -0.95000000 0.45000000 0.093410
-0.55000000 0.30000000 -0.75000000 0.093414
0.60000000 0.60000000 0.65000000 0.093416
0.30000000 -1.00000000 -0.65000000 0.093426
-0.20000000 -0.35000000 -0.80000000 0.093428
-0.40000000 -0.40000000 0.95000000 0.093429
-0.60000000 -0.90000000 -0.60000000 0.093442
-0.25000000 -0.85000000 -0.70000000 0.093443
0.05000000 -0.90000000 -0.70000000 0.093453
0.10000000 -0.50000000 1.00000000 0.093462
0.60000000 0.50000000 0.70000000 0.093469
0.45000000 0.15000000 -0.75000000 0.093472
-0.95000000 -0.20000000 -0.70000000 0.093475
-0.30000000 0.50000000 -0.75000000 0.093494
0.25000000 -0.60000000 0.85000000 0.093496
-0.25000000 0.85000000 -0.65000000 0.093525
-0.15000000 -0.90000000 0.75000000 0.093541
0.20000000 0.35000000 1.00000000 0.093550
-0.70000000 0.55000000 -0.65000000 0.093553
-1.00000000 0.80000000 0.35000000 0.093555
0.85000000 -0.65000000 -0.50000000 0.093555
0.25000000 0.95000000 -0.60000000 0.093561
-0.35000000 0.75000000 0.70000000 0.093567
-0.05000000 0.30000000 -0.80000000 0.093571
0.45000000 0.90000000 0.55000000 0.093576
-0.25000000 0.70000000 0.75000000 0.093579
-0.75000000 -0.40000000 -0.70000000 0.093582
-0.65000000 -0.40000000 0.80000000 0.093585
-0.50000000 -0.25000000 0.95000000 0.093587
1.00000000 -0.60000000 0.50000000 0.093601
0.25000000 0.35000000 0.95000000 0.093604
0.00000000 0.95000000 0.65000000 0.093611
-0.75000000 0.05000000 0.80000000 0.093613
-0.35000000 1.00000000 -0.60000000 0.093620
-0.65000000 0.80000000 0.55000000 0.093641
0.40000000 0.10000000 1.00000000 0.093648
-0.35000000 0.80000000 -0.65000000 0.093650
0.65000000 -0.50000000 -0.65000000 0.093660
-0.10000000 0.30000000 -0.80000000 0.093671
-0.45000000 0.60000000 -0.70000000 0.093678
0.80000000 -0.60000000 -0.55000000 0.093684
0.65000000 -0.40000000 0.75000000 0.093689
-0.50000000 1.00000000 -0.55000000 0.093701
-0.40000000 0.05000000 -0.80000000 0.093713
1.00000000 -0.95000000 0.15000000 0.093713
-0.35000000 -0.55000000 -0.75000000 0.093715
-0.75000000 -0.15000000 0.80000000 0.093715
0.95000000 -0.90000000 0.25000000 0.093719
0.10000000 -0.60000000 -0.75000000 0.093724
0.10000000 0.55000000 0.85000000 0.093729
0.50000000 0.85000000 0.55000000 0.093730
-0.85000000 0.90000000 -0.35000000 0.093732
-0.40000000 -0.90000000 0.70000000 0.093740
-0.75000000 0.55000000 0.65000000 0.093757
0.45000000 0.00000000 0.95000000 0.093765
-0.25000000 0.40000000 0.95000000 0.093768
-0.05000000 -0.55000000 0.95000000 0.093774
-0.75000000 0.85000000 0.45000000 0.093779
-0.65000000 0.90000000 -0.50000000 0.093782
-0.50000000 -0.80000000 0.70000000 0.093788
0.40000000 -0.20000000 1.00000000 0.093799
-0.60000000 0.85000000 -0.55000000 0.093799
0.45000000 -0.10000000 0.95000000 0.093814
0.80000000 0.80000000 -0.35000000 0.093821
-0.60000000 1.00000000 -0.50000000 0.093823
-0.25000000 -0.60000000 -0.75000000 0.093835
0.80000000 0.80000000 0.35000000 0.093838
-0.25000000 0.25000000 -0.80000000 0.093842
-0.75000000 0.30000000 0.75000000 0.093845
0.55000000 -0.55000000 0.75000000 0.093854
0.85000000 0.40000000 0.60000000 0.093871
0.35000000 0.25000000 0.95000000 0.093881
0.10000000 -0.30000000 -0.80000000 0.093899
-0.45000000 0.40000000 -0.75000000 0.093901
0.00000000 -0.35000000 -0.80000000 0.093906
0.90000000 -0.90000000 0.30000000 0.093908
-0.55000000 0.30000000 0.85000000 0.093918
0.20000000 0.60000000 0.80000000 0.093919
-0.20000000 -0.75000000 0.80000000 0.093927
0.85000000 0.65000000 0.45000000 0.093930
0.40000000 0.25000000 -0.75000000 0.093941
-0.40000000 -0.10000000 -0.80000000 0.093948
-0.50000000 -0.65000000 -0.70000000 0.093950
0.65000000 -0.15000000 -0.70000000 0.093954
-0.10000000 -0.60000000 0.90000000 0.093956
-0.95000000 0.50000000 -0.60000000 0.093957
-0.35000000 0.15000000 -0.80000000 0.093960
0.85000000 0.70000000 -0.40000000 0.093964
-0.50000000 0.25000000 0.90000000 0.093976
0.35000000 0.20000000 1.00000000 0.093980
-0.70000000 0.20000000 0.80000000 0.093994
-0.85000000 0.55000000 -0.60000000 0.093996
-1.00000000 1.00000000 -0.10000000 0.093996
-0.50000000 0.05000000 1.00000000 0.094003
0.80000000 -0.45000000 0.65000000 0.094005
0.80000000 -0.25000000 0.70000000 0.094006
0.85000000 -0.70000000 0.50000000 0.094023
0.15000000 -0.25000000 -0.80000000 0.094023
-0.40000000 0.45000000 0.85000000 0.094024
-0.55000000 0.80000000 0.60000000 0.094044
-0.40000000 0.25000000 1.00000000 0.094051
-0.50000000 0.95000000 0.55000000 0.094053
-0.05000000 0.95000000 0.65000000 0.094059
-0.50000000 0.35000000 -0.75000000 0.094067
0.20000000 -0.45000000 1.00000000 0.094070
0.05000000 -0.90000000 0.75000000 0.094092
0.25000000 -0.45000000 0.95000000 0.094100
0.20000000 0.10000000 -0.80000000 0.094103
-0.90000000 -0.80000000 0.50000000 0.094110
-0.85000000 -0.50000000 -0.65000000 0.094113
0.65000000 0.00000000 0.80000000 0.094133
-0.70000000 -0.95000000 0.55000000 0.094152
-0.60000000 -1.00000000 0.60000000 0.094152
-0.35000000 0.30000000 1.00000000 0.094153
0.90000000 -0.45000000 0.60000000 0.094153
0.30000000 -0.70000000 -0.70000000 0.094161
-0.50000000 -0.15000000 1.00000000 0.094163
0.50000000 0.95000000 0.50000000 0.094165
0.40000000 0.80000000 -0.60000000 0.094167
0.25000000 1.00000000 0.60000000 0.094169
-0.15000000 -0.35000000 -0.80000000 0.094181
-0.65000000 1.00000000 0.45000000 0.094192
0.35000000 -0.35000000 0.95000000 0.094199
0.00000000 -0.60000000 0.90000000 0.094208
0.65000000 0.05000000 -0.70000000 0.094209
-0.40000000 0.00000000 -0.80000000 0.094210
0.55000000 0.55000000 0.70000000 0.094213
0.90000000 0.40000000 -0.55000000 0.094213
-0.70000000 -0.45000000 -0.70000000 0.094223
0.65000000 -0.10000000 0.80000000 0.094228
0.70000000 -0.70000000 0.60000000 0.094228
-0.35000000 0.40000000 0.90000000 0.094234
0.85000000 0.45000000 -0.55000000 0.094241
0.35000000 -0.30000000 1.00000000 0.094244
0.35000000 -0.40000000 -0.75000000 0.094246
-0.65000000 0.10000000 -0.75000000 0.094249
0.50000000 0.00000000 0.90000000 0.094261
0.25000000 -1.00000000 0.70000000 0.094263
0.95000000 0.05000000 0.65000000 0.094274
-0.70000000 -0.30000000 0.80000000 0.094274
-0.40000000 -0.05000000 -0.80000000 0.094287
0.45000000 -0.05000000 0.95000000 0.094292
0.50000000 -0.10000000 0.90000000 0.094314
-0.30000000 0.20000000 -0.80000000 0.094316
-0.75000000 -0.40000000 0.75000000 0.094320
0.95000000 -0.40000000 0.60000000 0.094320
0.75000000 0.80000000 0.40000000 0.094330
-0.50000000 0.75000000 0.65000000 0.094345
-0.90000000 0.15000000 -0.70000000 0.094348
-0.25000000 -0.85000000 0.75000000 0.094351
0.20000000 0.65000000 -0.70000000 0.094356
0.30000000 0.55000000 0.80000000 0.094359
-0.55000000 -0.40000000 0.85000000 0.094376
0.80000000 -0.70000000 -0.50000000 0.094385
-0.50000000 -0.35000000 0.90000000 0.094387
-0.15000000 -0.90000000 -0.70000000 0.094398
1.00000000 -0.55000000 -0.50000000 0.094407
-0.05000000 -0.35000000 -0.80000000 0.094413
0.50000000 0.40000000 -0.70000000 0.094436
0.25000000 -0.50000000 -0.75000000 0.094442
0.45000000 -0.20000000 -0.75000000 0.094446
0.20000000 -0.15000000 -0.80000000 0.094450
0.85000000 -0.95000000 -0.30000000 0.094457
-0.70000000 -0.60000000 0.70000000 0.094460
-0.35000000 -0.20000000 -0.80000000 0.094463
-0.80000000 0.50000000 0.65000000 0.094469
0.40000000 -0.80000000 -0.65000000 0.094474
-0.20000000 0.80000000 0.70000000 0.094482
-0.10000000 -0.35000000 -0.80000000 0.094507
-0.55000000 0.90000000 -0.55000000 0.094509
0.80000000 0.75000000 0.40000000 0.094512
0.45000000 -0.55000000 -0.70000000 0.094518
-0.55000000 -0.75000000 0.70000000 0.094534
-0.40000000 -0.35000000 1.00000000 0.094536
-0.55000000 0.15000000 0.90000000 0.094538
0.25000000 -0.80000000 0.75000000 0.094546
-0.25000000 -0.50000000 0.95000000 0.094548
0.05000000 0.25000000 -0.80000000 0.094554
-0.35000000 0.65000000 -0.70000000 0.094563
-0.85000000 0.20000000 -0.70000000 0.094564
-0.25000000 -0.30000000 -0.80000000 0.094566
0.10000000 0.85000000 -0.65000000 0.094566
-0.05000000 -0.60000000 0.90000000 0.094571
0.85000000 0.25000000 0.65000000 0.094573
-0.85000000 0.10000000 0.75000000 0.094575
-1.00000000 0.35000000 -0.65000000 0.094577
0.85000000 0.50000000 0.55000000 0.094591
-0.75000000 0.50000000 -0.65000000 0.094593
-1.00000000 -0.90000000 0.40000000 0.094619
-0.55000000 -0.60000000 -0.70000000 0.094627
-1.00000000 -0.15000000 -0.70000000 0.094627
-0.95000000 0.10000000 -0.70000000 0.094630
0.40000000 -1.00000000 0.65000000 0.094634
0.10000000 -0.85000000 -0.70000000 0.094643
0.65000000 -0.05000000 0.80000000 0.094644
0.95000000 -0.45000000 -0.55000000 0.094646
0.70000000 0.50000000 -0.60000000 0.094654
0.15000000 0.70000000 0.75000000 0.094664
-0.15000000 0.40000000 1.00000000 0.094675
-0.70000000 -0.90000000 -0.55000000 0.094677
-0.65000000 0.80000000 -0.55000000 0.094701
0.90000000 0.45000000 0.55000000 0.094704
0.90000000 -0.60000000 -0.50000000 0.094704
-0.65000000 -0.50000000 -0.70000000 0.094716
-0.35000000 -0.40000000 1.00000000 0.094727
0.75000000 0.85000000 0.35000000 0.094737
0.95000000 -0.75000000 0.40000000 0.094741
0.30000000 0.30000000 0.95000000 0.094741
0.85000000 0.75000000 -0.35000000 0.094743
-0.85000000 -0.20000000 0.75000000 0.094744
0.30000000 -0.45000000 -0.75000000 0.094744
0.95000000 -0.15000000 0.65000000 0.094744
0.95000000 -0.25000000 -0.60000000 0.094754
0.10000000 -0.75000000 0.80000000 0.094755
-0.95000000 0.95000000 -0.20000000 0.094755
0.50000000 -0.85000000 -0.60000000 0.094756
-0.45000000 -0.90000000 -0.65000000 0.094760
-0.30000000 -0.80000000 -0.70000000 0.094771
0.50000000 -0.05000000 0.90000000 0.094773
0.60000000 0.20000000 0.80000000 0.094787
-0.40000000 -0.65000000 0.80000000 0.094796
-0.80000000 -0.90000000 0.50000000 0.094798
-1.00000000 0.70000000 0.45000000 0.094804
-0.55000000 -0.25000000 0.90000000 0.094804
0.35000000 -0.65000000 -0.70000000 0.094807
0.90000000 -0.65000000 0.50000000 0.094827
0.80000000 -0.15000000 -0.65000000 0.094832
-0.75000000 -1.00000000 -0.50000000 0.094832
0.20000000 0.45000000 -0.75000000 0.094842
0.75000000 0.90000000 0.30000000 0.094842
0.45000000 -0.65000000 0.75000000 0.094844
-0.55000000 -0.35000000 -0.75000000 0.094846
0.55000000 0.10000000 0.85000000 0.094849
-0.60000000 0.20000000 -0.75000000 0.094851
0.15000000 0.40000000 0.95000000 0.094853
-0.70000000 0.90000000 0.45000000 0.094857
0.35000000 0.70000000 0.70000000 0.094859
0.55000000 0.30000000 0.80000000 0.094876
-0.60000000 -0.55000000 -0.70000000 0.094883
-0.65000000 -0.15000000 -0.75000000 0.094891
0.65000000 0.40000000 -0.65000000 0.094893
0.65000000 -0.10000000 -0.70000000 0.094893
0.20000000 0.80000000 -0.65000000 0.094900
0.45000000 -0.95000000 -0.60000000 0.094902
-1.00000000 0.20000000 0.70000000 0.094907
0.10000000 0.50000000 -0.75000000 0.094911
-0.30000000 -0.25000000 -0.80000000 0.094915
-0.80000000 -0.80000000 0.55000000 0.094918
-0.95000000 1.00000000 -0.15000000 0.094929
0.45000000 0.10000000 -0.75000000 0.094959
0.20000000 0.05000000 -0.80000000 0.094959
0.05000000 0.70000000 -0.70000000 0.094963
-0.20000000 0.70000000 -0.70000000 0.094969
-0.90000000 -1.00000000 0.40000000 0.094973
-0.90000000 -0.60000000 -0.60000000 0.094973
0.40000000 -0.60000000 -0.70000000 0.094988
0.00000000 -0.90000000 -0.70000000 0.094998
-0.35000000 -0.50000000 0.90000000 0.095004
-0.25000000 0.45000000 0.90000000 0.095009
1.00000000 -0.50000000 0.55000000 0.095014
0.65000000 0.00000000 -0.70000000 0.095022
0.70000000 0.85000000 -0.40000000 0.095023
-0.40000000 -0.55000000 0.85000000 0.095042
0.90000000 0.15000000 0.65000000 0.095043
0.80000000 -0.45000000 -0.60000000 0.095048
0.55000000 -0.20000000 0.85000000 0.095051
-0.75000000 0.00000000 0.80000000 0.095061
0.15000000 0.15000000 -0.80000000 0.095061
0.35000000 0.55000000 -0.70000000 0.095069
0.50000000 -0.60000000 0.75000000 0.095070
-0.95000000 0.85000000 0.30000000 0.095070
-0.20000000 0.25000000 -0.80000000 0.095074
-0.20000000 -0.65000000 0.85000000 0.095078
-0.40000000 -0.50000000 -0.75000000 0.095078
-0.60000000 -0.70000000 0.70000000 0.095079
0.80000000 0.05000000 -0.65000000 0.095086
0.25000000 0.75000000 0.70000000 0.095087
-0.65000000 -0.65000000 0.70000000 0.095092
-0.75000000 -0.10000000 0.80000000 0.095113
0.60000000 -0.30000000 -0.70000000 0.095117
0.95000000 -0.85000000 0.30000000 0.095119
0.60000000 0.90000000 -0.45000000 0.095125
0.55000000 0.80000000 0.55000000 0.095139
0.85000000 0.75000000 0.35000000 0.095142
0.30000000 -0.40000000 0.95000000 0.095144
0.20000000 -0.10000000 -0.80000000 0.095156
0.30000000 -0.95000000 -0.65000000 0.095168
0.75000000 -0.85000000 -0.45000000 0.095183
-0.95000000 -0.60000000 0.60000000 0.095184
-0.80000000 0.25000000 -0.70000000 0.095202
0.05000000 0.40000000 1.00000000 0.095215
0.10000000 0.20000000 -0.80000000 0.095219
0.05000000 -0.30000000 -0.80000000 0.095223
-0.90000000 -1.00000000 -0.40000000 0.095229
0.65000000 -0.05000000 -0.70000000 0.095249
0.60000000 -0.30000000 0.80000000 0.095249
0.75000000 -0.30000000 -0.65000000 0.095260
-1.00000000 -0.30000000 0.70000000 0.095266
0.85000000 -0.80000000 -0.40000000 0.095268
0.10000000 0.80000000 0.70000000 0.095273
-0.35000000 0.10000000 -0.80000000 0.095278
0.75000000 0.85000000 -0.35000000 0.095278
-0.45000000 0.60000000 0.75000000 0.095280
-0.50000000 0.70000000 -0.65000000 0.095282
-0.10000000 -0.90000000 0.75000000 0.095289
-0.95000000 0.65000000 0.50000000 0.095305
-1.00000000 1.00000000 0.05000000 0.095306
0.05000000 -0.60000000 -0.75000000 0.095308
-0.65000000 0.05000000 0.85000000 0.095353
-0.15000000 0.55000000 0.85000000 0.095353
0.95000000 -1.00000000 0.15000000 0.095360
0.70000000 -0.95000000 -0.45000000 0.095367
0.95000000 0.15000000 -0.60000000 0.095375
-0.90000000 0.95000000 -0.25000000 0.095380
1.00000000 -1.00000000 -0.05000000 0.095390
0.55000000 -0.40000000 -0.70000000 0.095392
0.60000000 -0.85000000 -0.55000000 0.095398
-1.00000000 0.05000000 -0.70000000 0.095412
0.40000000 -0.30000000 -0.75000000 0.095413
0.20000000 0.00000000 -0.80000000 0.095415
-0.20000000 -0.60000000 -0.75000000 0.095420
0.95000000 0.50000000 0.50000000 0.095422
0.70000000 0.85000000 0.40000000 0.095437
0.80000000 -0.75000000 0.50000000 0.095446
-0.50000000 -0.95000000 0.65000000 0.095454
0.80000000 1.00000000 0.10000000 0.095458
-0.15000000 -0.50000000 1.00000000 0.095466
-0.65000000 -0.15000000 0.85000000 0.095468
0.15000000 -0.85000000 0.75000000 0.095473
-0.10000000 -0.90000000 -0.70000000 0.095478
-1.00000000 0.75000000 0.40000000 0.095478
0.20000000 -0.05000000 -0.80000000 0.095479
0.90000000 0.75000000 0.30000000 0.095490
0.85000000 -0.90000000 0.35000000 0.095490
0.15000000 -0.20000000 -0.80000000 0.095495
-0.65000000 0.05000000 -0.75000000 0.095497
0.95000000 -0.65000000 -0.45000000 0.095500
0.35000000 0.30000000 -0.75000000 0.095511
0.70000000 0.35000000 0.70000000 0.095515
0.35000000 -0.85000000 0.70000000 0.095517
-0.85000000 0.45000000 0.65000000 0.095524
0.15000000 -0.50000000 0.95000000 0.095525
0.55000000 -0.40000000 0.80000000 0.095525
0.00000000 0.25000000 -0.80000000 0.095531
-0.80000000 0.20000000 0.75000000 0.095531
-0.35000000 -0.95000000 0.70000000 0.095539
1.00000000 -0.20000000 -0.60000000 0.095540
-0.75000000 -0.05000000 0.80000000 0.095565
0.40000000 0.15000000 0.95000000 0.095566
-0.65000000 0.70000000 -0.60000000 0.095569
0.00000000 -0.90000000 0.75000000 0.095569
-0.90000000 0.90000000 -0.30000000 0.095572
-0.25000000 0.50000000 -0.75000000 0.095573
-0.50000000 0.00000000 1.00000000 0.095584
0.80000000 0.50000000 -0.55000000 0.095584
-0.60000000 0.20000000 0.85000000 0.095595
0.70000000 -0.40000000 -0.65000000 0.095596
-0.80000000 0.80000000 0.45000000 0.095603
-0.35000000 -0.15000000 -0.80000000 0.095616
0.45000000 -0.15000000 -0.75000000 0.095631
-1.00000000 -0.90000000 -0.40000000 0.095642
0.85000000 0.90000000 0.10000000 0.095647
-0.50000000 -0.40000000 -0.75000000 0.095651
0.30000000 -0.90000000 0.70000000 0.095658
-0.50000000 -0.10000000 1.00000000 0.095666
-0.05000000 -0.90000000 -0.70000000 0.095678
0.85000000 0.55000000 -0.50000000 0.095681
0.45000000 0.45000000 -0.70000000 0.095689
-0.50000000 0.35000000 0.85000000 0.095709
0.55000000 1.00000000 0.45000000 0.095712
-0.20000000 -0.30000000 -0.80000000 0.095723
-0.30000000 0.50000000 0.85000000 0.095729
-0.45000000 -0.45000000 -0.75000000 0.095731
-0.85000000 0.55000000 0.60000000 0.095734
0.60000000 0.90000000 0.45000000 0.095736
0.65000000 -0.65000000 -0.60000000 0.095738
0.80000000 0.55000000 0.55000000 0.095748
0.25000000 0.30000000 1.00000000 0.095748
0.85000000 -1.00000000 0.30000000 0.095749
0.10000000 -0.25000000 -0.80000000 0.095750
-0.45000000 0.40000000 0.85000000 0.095758
0.40000000 -0.25000000 0.95000000 0.095773
-0.80000000 0.45000000 -0.65000000 0.095775
0.60000000 -0.95000000 0.55000000 0.095784
0.90000000 -0.30000000 -0.60000000 0.095791
-0.90000000 -0.70000000 -0.55000000 0.095794
-0.90000000 0.75000000 -0.45000000 0.095799
0.80000000 0.60000000 -0.50000000 0.095805
0.60000000 -0.60000000 0.70000000 0.095807
0.60000000 0.20000000 -0.70000000 0.095808
0.75000000 -0.65000000 -0.55000000 0.095837
-0.80000000 -0.30000000 0.75000000 0.095837
0.95000000 -0.80000000 0.35000000 0.095847
0.40000000 0.95000000 0.55000000 0.095847
0.75000000 -0.90000000 0.45000000 0.095850
-0.15000000 0.25000000 -0.80000000 0.095851
0.70000000 0.15000000 0.75000000 0.095856
0.90000000 0.85000000 0.10000000 0.095867
-0.65000000 -0.10000000 -0.75000000 0.095877
0.25000000 0.40000000 0.90000000 0.095881
-0.60000000 -0.25000000 -0.75000000 0.095882
-0.90000000 0.60000000 0.55000000 0.095885
0.10000000 -0.65000000 0.85000000 0.095886
0.30000000 0.25000000 1.00000000 0.095896
0.45000000 0.75000000 -0.60000000 0.095897
-0.60000000 -0.30000000 0.85000000 0.095900
0.40000000 0.50000000 -0.70000000 0.095906
-0.85000000 1.00000000 0.25000000 0.095906
0.15000000 -0.55000000 -0.75000000 0.095910
-0.85000000 -0.75000000 0.55000000 0.095918
0.85000000 -0.35000000 0.65000000 0.095920
0.30000000 0.45000000 0.85000000 0.095924
0.05000000 0.55000000 0.85000000 0.095929
1.00000000 0.25000000 0.60000000 0.095929
-0.45000000 0.50000000 0.80000000 0.095935
-0.45000000 0.30000000 0.90000000 0.095940
0.05000000 -0.50000000 1.00000000 0.095942
0.75000000 0.20000000 -0.65000000 0.095948
-0.35000000 0.45000000 -0.75000000 0.095954
-0.95000000 -0.15000000 -0.70000000 0.095957
-0.25000000 0.20000000 -0.80000000 0.095968
0.90000000 -0.25000000 0.65000000 0.095970
-0.05000000 -0.90000000 0.75000000 0.095971
0.45000000 0.05000000 -0.75000000 0.095981
0.85000000 0.70000000 0.40000000 0.095988
0.25000000 0.40000000 -0.75000000 0.095990
0.90000000 0.75000000 -0.30000000 0.095992
-0.50000000 0.55000000 -0.70000000 0.095995
1.00000000 0.10000000 -0.60000000 0.096000
0.45000000 0.80000000 0.60000000 0.096001
0.80000000 0.95000000 0.15000000 0.096009
0.15000000 -0.80000000 -0.70000000 0.096014
-0.75000000 0.95000000 -0.40000000 0.096014
-0.25000000 -0.55000000 0.90000000 0.096028
0.55000000 -0.95000000 -0.55000000 0.096028
-0.30000000 0.15000000 -0.80000000 0.096031
-0.40000000 0.35000000 0.90000000 0.096034
-0.70000000 0.75000000 0.55000000 0.096040
-0.80000000 0.75000000 -0.50000000 0.096048
1.00000000 -0.85000000 -0.25000000 0.096056
-0.05000000 0.25000000 -0.80000000 0.096074
-1.00000000 -0.75000000 -0.50000000 0.096079
0.35000000 -0.85000000 -0.65000000 0.096088
-0.90000000 -0.20000000 -0.70000000 0.096088
0.80000000 -0.10000000 -0.65000000 0.096088
-0.75000000 0.30000000 -0.70000000 0.096099
0.75000000 0.25000000 0.70000000 0.096106
-0.20000000 -0.85000000 -0.70000000 0.096110
0.95000000 0.00000000 0.65000000 0.096120
0.15000000 0.45000000 0.90000000 0.096131
0.90000000 -0.75000000 -0.40000000 0.096136
0.00000000 -0.30000000 -0.80000000 0.096138
-0.50000000 -0.05000000 1.00000000 0.096143
-0.60000000 0.35000000 0.80000000 0.096163
-0.35000000 0.05000000 -0.80000000 0.096166
0.35000000 0.70000000 -0.65000000 0.096175
0.25000000 -0.40000000 1.00000000 0.096180
-0.10000000 0.25000000 -0.80000000 0.096182
-0.65000000 0.00000000 -0.75000000 0.096182
1.00000000 0.80000000 0.10000000 0.096192
1.00000000 -0.70000000 -0.40000000 0.096195
0.85000000 -0.50000000 0.60000000 0.096199
-0.30000000 -0.70000000 0.80000000 0.096202
0.30000000 0.35000000 -0.75000000 0.096202
0.65000000 -0.65000000 0.65000000 0.096214
0.80000000 0.00000000 -0.65000000 0.096217
0.40000000 -0.80000000 0.70000000 0.096218
-0.85000000 0.70000000 0.50000000 0.096229
-0.40000000 -0.75000000 0.75000000 0.096233
-1.00000000 -0.10000000 -0.70000000 0.096236
0.30000000 -0.35000000 1.00000000 0.096242
-0.80000000 -0.60000000 0.65000000 0.096263
0.40000000 0.05000000 1.00000000 0.096263
0.70000000 1.00000000 0.30000000 0.096270
-0.30000000 -0.55000000 -0.75000000 0.096270
-0.40000000 0.90000000 -0.60000000 0.096277
0.40000000 0.25000000 0.90000000 0.096280
0.45000000 0.30000000 0.85000000 0.096280
0.95000000 0.35000000 -0.55000000 0.096282
-0.35000000 -0.75000000 -0.70000000 0.096301
0.15000000 0.10000000 -0.80000000 0.096302
-0.50000000 -0.45000000 0.85000000 0.096304
-0.20000000 0.90000000 0.65000000 0.096308
-0.65000000 -0.05000000 -0.75000000 0.096308
-0.75000000 -0.65000000 0.65000000 0.096322
0.75000000 0.95000000 0.25000000 0.096323
0.40000000 0.20000000 -0.75000000 0.096323
0.40000000 0.75000000 0.65000000 0.096338
0.95000000 -0.10000000 0.65000000 0.096360
-0.35000000 -0.10000000 -0.80000000 0.096360
-0.10000000 0.40000000 1.00000000 0.096364
0.40000000 -0.15000000 1.00000000 0.096368
0.45000000 -0.10000000 -0.75000000 0.096374
0.00000000 -0.60000000 -0.75000000 0.096377
0.00000000 0.70000000 -0.70000000 0.096380
0.70000000 -0.25000000 0.75000000 0.096390
-0.15000000 0.70000000 -0.70000000 0.096395
0.55000000 0.30000000 -0.70000000 0.096398
0.80000000 0.35000000 -0.60000000 0.096406
1.00000000 -1.00000000 0.05000000 0.096435
-0.15000000 -0.30000000 -0.80000000 0.096447
0.60000000 -0.55000000 -0.65000000 0.096451
-0.30000000 -0.20000000 -0.80000000 0.096452
-0.15000000 -0.60000000 -0.75000000 0.096457
-0.45000000 -0.40000000 0.90000000 0.096459
-0.35000000 0.65000000 0.75000000 0.096474
-0.20000000 0.85000000 -0.65000000 0.096475
-0.25000000 -0.25000000 -0.80000000 0.096482
0.65000000 -0.90000000 -0.50000000 0.096487
-0.40000000 -1.00000000 -0.65000000 0.096493
-0.15000000 -0.75000000 0.80000000 0.096499
0.90000000 -0.95000000 0.25000000 0.096503
-0.95000000 0.35000000 -0.65000000 0.096514
0.75000000 0.65000000 -0.50000000 0.096526
-0.45000000 -0.50000000 0.85000000 0.096530
0.75000000 0.90000000 -0.30000000 0.096532
0.25000000 -0.50000000 0.90000000 0.096551
0.80000000 -0.05000000 -0.65000000 0.096552
0.45000000 0.00000000 -0.75000000 0.096552
0.80000000 -0.90000000 0.40000000 0.096569
-0.45000000 0.15000000 1.00000000 0.096579
0.15000000 -0.15000000 -0.80000000 0.096583
0.05000000 0.50000000 -0.75000000 0.096586
-0.70000000 0.75000000 -0.55000000 0.096591
0.50000000 -1.00000000 0.60000000 0.096598
0.90000000 0.20000000 -0.60000000 0.096601
-0.85000000 -0.25000000 -0.70000000 0.096609
0.70000000 0.30000000 -0.65000000 0.096610
0.05000000 0.20000000 -0.80000000 0.096610
-0.75000000 -0.75000000 0.60000000 0.096618
0.40000000 -0.35000000 0.90000000 0.096622
-1.00000000 0.95000000 -0.15000000 0.096623
-0.70000000 -0.70000000 0.65000000 0.096626
-1.00000000 0.00000000 -0.70000000 0.096634
-0.35000000 0.00000000 -0.80000000 0.096638
0.00000000 0.40000000 1.00000000 0.096638
0.75000000 -0.75000000 -0.50000000 0.096646
-0.05000000 -0.30000000 -0.80000000 0.096648
-0.55000000 0.25000000 -0.75000000 0.096650
0.95000000 0.80000000 0.15000000 0.096667
-0.40000000 -0.45000000 0.90000000 0.096669
-0.75000000 -0.85000000 0.55000000 0.096670
0.45000000 -0.05000000 -0.75000000 0.096681
0.85000000 0.90000000 -0.10000000 0.096700
-0.35000000 -0.05000000 -0.80000000 0.096701
0.90000000 0.60000000 0.45000000 0.096710
0.65000000 -0.75000000 0.60000000 0.096732
0.30000000 -0.65000000 0.80000000 0.096738
-1.00000000 -0.75000000 0.50000000 0.096744
1.00000000 0.45000000 -0.50000000 0.096745
-0.95000000 0.05000000 -0.70000000 0.096747
0.80000000 1.00000000 -0.10000000 0.096752
-0.60000000 -0.45000000 0.80000000 0.096753
-0.10000000 -0.30000000 -0.80000000 0.096753
0.60000000 0.75000000 0.55000000 0.096762
0.45000000 -0.40000000 0.85000000 0.096769
0.80000000 0.45000000 0.60000000 0.096773
0.65000000 0.55000000 -0.60000000 0.096776
0.20000000 1.00000000 -0.60000000 0.096788
0.90000000 0.85000000 -0.10000000 0.096794
-0.85000000 0.95000000 -0.30000000 0.096797
-0.65000000 0.00000000 0.85000000 0.096799
0.55000000 1.00000000 -0.45000000 0.096807
-0.25000000 0.60000000 0.80000000 0.096819
0.95000000 -0.05000000 0.65000000 0.096823
-0.50000000 0.10000000 0.95000000 0.096836
-1.00000000 -1.00000000 0.35000000 0.096841
-0.80000000 -0.70000000 0.60000000 0.096843
-0.35000000 0.95000000 -0.60000000 0.096851
0.10000000 0.15000000 -0.80000000 0.096857
-0.65000000 -0.10000000 0.85000000 0.096858
-0.85000000 -0.55000000 0.65000000 0.096865
-0.90000000 0.85000000 -0.35000000 0.096890
-1.00000000 -0.05000000 -0.70000000 0.096910
0.80000000 0.10000000 0.70000000 0.096911
-0.10000000 0.55000000 0.85000000 0.096911
-0.45000000 -0.25000000 1.00000000 0.096915
0.30000000 -0.55000000 0.85000000 0.096919
-0.05000000 -0.60000000 -0.75000000 0.096928
-0.55000000 -1.00000000 -0.60000000 0.096928
0.70000000 -0.45000000 0.70000000 0.096928
0.65000000 -0.85000000 0.55000000 0.096931
0.45000000 0.15000000 0.90000000 0.096953
0.05000000 -0.85000000 -0.70000000 0.096956
-0.10000000 -0.60000000 -0.75000000 0.096957
-1.00000000 1.00000000 -0.05000000 0.096972
-0.25000000 0.35000000 1.00000000 0.096991
-0.90000000 -0.45000000 -0.65000000 0.097001
-0.20000000 0.70000000 0.75000000 0.097015
-0.65000000 -0.75000000 0.65000000 0.097020
-0.70000000 0.35000000 -0.70000000 0.097023
-0.05000000 0.40000000 1.00000000 0.097023
0.75000000 0.40000000 0.65000000 0.097036
0.80000000 -0.95000000 -0.35000000 0.097054
-1.00000000 0.90000000 0.20000000 0.097055
-0.70000000 -0.75000000 -0.60000000 0.097055
1.00000000 0.55000000 0.45000000 0.097062
1.00000000 0.80000000 -0.10000000 0.097065
0.10000000 0.90000000 0.65000000 0.097065
0.05000000 -0.25000000 -0.80000000 0.097066
0.15000000 -0.55000000 0.90000000 0.097066
0.05000000 -0.75000000 0.80000000 0.097067
-0.50000000 -0.20000000 0.95000000 0.097071
0.90000000 0.50000000 -0.50000000 0.097084
-0.20000000 0.50000000 -0.75000000 0.097091
-0.05000000 0.70000000 -0.70000000 0.097097
-0.60000000 0.15000000 -0.75000000 0.097103
-0.10000000 0.70000000 -0.70000000 0.097104
1.00000000 -0.90000000 0.20000000 0.097110
0.75000000 0.60000000 0.55000000 0.097126
0.45000000 -0.75000000 0.70000000 0.097133
0.15000000 0.05000000 -0.80000000 0.097134
-0.70000000 0.35000000 0.75000000 0.097140
0.35000000 -0.35000000 -0.75000000 0.097141
-0.15000000 0.80000000 0.70000000 0.097148
0.20000000 0.50000000 0.85000000 0.097151
-0.10000000 -0.50000000 1.00000000 0.097163
-0.20000000 0.20000000 -0.80000000 0.097164
-0.85000000 0.05000000 0.75000000 0.097170
0.75000000 -0.35000000 0.70000000 0.097176
0.45000000 -0.25000000 0.90000000 0.097176
0.90000000 -1.00000000 -0.20000000 0.097192
0.95000000 0.75000000 0.25000000 0.097199
0.00000000 0.55000000 0.85000000 0.097204
0.70000000 0.70000000 -0.50000000 0.097207
0.25000000 -0.95000000 0.70000000 0.097209
0.05000000 0.85000000 -0.65000000 0.097213
0.10000000 -0.20000000 -0.80000000 0.097214
-0.35000000 0.95000000 0.60000000 0.097218
1.00000000 -1.00000000 0.00000000 0.097219
-0.95000000 1.00000000 0.10000000 0.097233
-0.30000000 -0.60000000 0.85000000 0.097238
0.55000000 0.05000000 0.85000000 0.097248
-0.90000000 0.10000000 -0.70000000 0.097261
0.95000000 0.40000000 0.55000000 0.097267
-0.85000000 -0.15000000 0.75000000 0.097285
-0.90000000 0.25000000 0.70000000 0.097286
0.15000000 -0.10000000 -0.80000000 0.097291
-0.65000000 -0.05000000 0.85000000 0.097304
-0.30000000 0.10000000 -0.80000000 0.097308
0.90000000 0.65000000 -0.40000000 0.097322
0.55000000 -0.65000000 0.70000000 0.097327
0.35000000 0.60000000 0.75000000 0.097330
-0.75000000 -0.70000000 -0.60000000 0.097333
-0.45000000 0.20000000 0.95000000 0.097347
0.50000000 0.70000000 -0.60000000 0.097379
-0.40000000 0.80000000 0.65000000 0.097379
0.20000000 -0.50000000 -0.75000000 0.097380
-0.55000000 0.50000000 -0.70000000 0.097382
0.55000000 -0.15000000 0.85000000 0.097386
-0.60000000 0.75000000 0.60000000 0.097388
-0.90000000 0.80000000 -0.40000000 0.097402
-0.80000000 0.95000000 -0.35000000 0.097403
0.00000000 -0.50000000 1.00000000 0.097405
1.00000000 0.70000000 0.30000000 0.097417
-1.00000000 1.00000000 0.00000000 0.097419
-0.20000000 0.40000000 0.95000000 0.097436
-0.45000000 0.85000000 -0.60000000 0.097436
0.75000000 0.55000000 -0.55000000 0.097438
0.20000000 -0.75000000 -0.70000000 0.097447
-0.80000000 -0.30000000 -0.70000000 0.097448
0.40000000 -0.25000000 -0.75000000 0.097448
-0.40000000 0.40000000 -0.75000000 0.097451
0.80000000 -0.20000000 0.70000000 0.097468
0.15000000 0.45000000 -0.75000000 0.097496
-0.45000000 -0.60000000 0.80000000 0.097503
0.85000000 0.85000000 0.20000000 0.097513
-0.85000000 0.40000000 -0.65000000 0.097531
-0.05000000 0.55000000 0.85000000 0.097533
1.00000000 -0.35000000 0.60000000 0.097540
1.00000000 -0.95000000 -0.10000000 0.097542
-0.95000000 -0.10000000 -0.70000000 0.097546
-0.60000000 -0.95000000 0.60000000 0.097556
0.15000000 0.00000000 -0.80000000 0.097570
0.00000000 0.20000000 -0.80000000 0.097574
-1.00000000 0.85000000 -0.30000000 0.097575
-0.30000000 -0.15000000 -0.80000000 0.097585
-0.50000000 0.95000000 -0.55000000 0.097586
-0.70000000 -0.80000000 0.60000000 0.097592
0.75000000 -0.95000000 -0.40000000 0.097598
0.90000000 -0.55000000 0.55000000 0.097603
-0.20000000 -0.25000000 -0.80000000 0.097610
0.65000000 0.75000000 -0.50000000 0.097615
0.15000000 -0.05000000 -0.80000000 0.097620
0.20000000 -0.70000000 0.80000000 0.097621
-0.15000000 -0.65000000 0.85000000 0.097622
-0.90000000 0.40000000 0.65000000 0.097635
-0.25000000 0.15000000 -0.80000000 0.097643
-0.60000000 -0.80000000 0.65000000 0.097653
-0.50000000 0.65000000 0.70000000 0.097661
-0.30000000 0.35000000 0.95000000 0.097663
0.50000000 -0.70000000 0.70000000 0.097664
-0.50000000 0.45000000 0.80000000 0.097684
-0.25000000 -0.45000000 1.00000000 0.097694
0.05000000 0.80000000 0.70000000 0.097695
0.80000000 0.95000000 -0.15000000 0.097708
-0.65000000 0.40000000 -0.70000000 0.097711
