//X Y Z Consensus 
0.80000000 0.50000000 -0.70000000 0.000179
-1.00000000 0.05000000 0.65000000 0.000179
0.65000000 0.45000000 0.75000000 0.000179
-0.90000000 -0.10000000 0.75000000 0.000179
-0.75000000 -0.95000000 0.40000000 0.000179
-0.10000000 0.50000000 1.00000000 0.000179
0.30000000 0.90000000 -0.70000000 0.000179
-0.95000000 0.00000000 0.70000000 0.000179
-0.15000000 0.70000000 -1.00000000 0.000179
0.50000000 -0.10000000 1.00000000 0.000179
-0.90000000 -0.55000000 0.55000000 0.000179
0.55000000 -0.10000000 0.95000000 0.000179
0.40000000 0.55000000 -0.95000000 0.000179
-0.90000000 0.20000000 0.70000000 0.000179
-0.65000000 -0.95000000 0.45000000 0.000179
-0.50000000 -0.75000000 0.75000000 0.000179
0.25000000 0.95000000 -0.65000000 0.000179
1.00000000 0.35000000 -0.55000000 0.000179
0.55000000 -0.45000000 0.85000000 0.000179
1.00000000 0.00000000 0.50000000 0.000179
0.65000000 0.30000000 -0.95000000 0.000179
0.55000000 0.70000000 -0.75000000 0.000179
-0.30000000 -0.85000000 0.75000000 0.000179
0.20000000 0.75000000 -0.90000000 0.000179
0.95000000 -0.05000000 0.55000000 0.000179
0.90000000 -0.90000000 -0.30000000 0.000179
0.35000000 -0.55000000 0.90000000 0.000179
-0.55000000 0.70000000 -0.85000000 0.000180
-0.30000000 0.90000000 -0.75000000 0.000180
-0.60000000 -0.30000000 0.95000000 0.000180
-0.10000000 0.70000000 -1.00000000 0.000180
-0.05000000 -0.90000000 -0.90000000 0.000180
0.30000000 0.50000000 0.90000000 0.000180
0.90000000 -0.15000000 -0.80000000 0.000180
-0.60000000 -1.00000000 -0.60000000 0.000180
-0.95000000 0.30000000 0.60000000 0.000180
-0.80000000 0.50000000 0.65000000 0.000180
0.80000000 1.00000000 -0.10000000 0.000180
0.90000000 -0.75000000 -0.45000000 0.000180
0.10000000 -1.00000000 0.60000000 0.000180
-0.80000000 0.05000000 -1.00000000 0.000180
1.00000000 -0.15000000 0.50000000 0.000181
0.60000000 -0.95000000 -0.55000000 0.000181
-0.95000000 -0.10000000 0.70000000 0.000181
-0.10000000 -0.95000000 -0.85000000 0.000181
-0.35000000 0.90000000 0.55000000 0.000181
0.75000000 0.20000000 -0.90000000 0.000181
0.70000000 -0.55000000 0.70000000 0.000181
-0.90000000 -0.05000000 0.75000000 0.000181
-0.75000000 0.10000000 0.85000000 0.000181
-0.65000000 -0.15000000 0.95000000 0.000181
-0.90000000 0.05000000 -0.90000000 0.000181
-0.45000000 0.90000000 0.50000000 0.000181
-0.40000000 0.60000000 -1.00000000 0.000181
-0.65000000 0.85000000 0.45000000 0.000181
-0.30000000 0.65000000 0.85000000 0.000182
0.70000000 0.80000000 0.40000000 0.000182
0.95000000 -0.15000000 0.55000000 0.000182
0.65000000 0.90000000 -0.45000000 0.000182
-0.80000000 0.45000000 -0.85000000 0.000182
0.45000000 0.55000000 0.80000000 0.000182
0.20000000 0.95000000 0.50000000 0.000182
-0.60000000 -0.15000000 1.00000000 0.000182
0.00000000 1.00000000 0.50000000 0.000182
1.00000000 -0.90000000 -0.10000000 0.000182
0.40000000 -0.30000000 1.00000000 0.000182
-0.70000000 -0.85000000 -0.70000000 0.000182
0.25000000 0.65000000 -0.95000000 0.000182
0.85000000 -0.20000000 -0.85000000 0.000182
-1.00000000 0.30000000 0.55000000 0.000182
-0.80000000 0.35000000 -0.90000000 0.000182
0.15000000 0.90000000 0.60000000 0.000182
-0.30000000 0.85000000 0.65000000 0.000182
-0.55000000 0.45000000 0.85000000 0.000182
0.05000000 -0.80000000 0.80000000 0.000182
-0.85000000 -0.70000000 -0.70000000 0.000182
-0.85000000 -0.10000000 -0.95000000 0.000182
0.35000000 0.90000000 0.50000000 0.000183
-0.05000000 -0.95000000 -0.85000000 0.000183
0.60000000 -0.15000000 0.90000000 0.000183
0.40000000 -0.60000000 0.85000000 0.000183
-0.20000000 0.60000000 0.90000000 0.000183
0.90000000 0.20000000 -0.75000000 0.000183
-0.15000000 -0.80000000 0.80000000 0.000183
-0.05000000 0.50000000 1.00000000 0.000183
0.95000000 0.85000000 -0.10000000 0.000183
-0.20000000 -1.00000000 -0.80000000 0.000183
0.45000000 -0.45000000 0.90000000 0.000183
0.05000000 1.00000000 -0.65000000 0.000183
0.45000000 0.85000000 0.50000000 0.000183
-0.60000000 0.60000000 0.75000000 0.000183
0.10000000 0.95000000 -0.70000000 0.000183
-0.75000000 -0.40000000 0.80000000 0.000183
-0.80000000 -0.80000000 -0.65000000 0.000183
-0.70000000 -1.00000000 0.40000000 0.000183
-0.50000000 -0.70000000 -0.95000000 0.000183
-0.90000000 -0.15000000 -0.90000000 0.000183
-0.65000000 -0.45000000 0.85000000 0.000184
-0.85000000 0.00000000 -0.95000000 0.000184
0.85000000 -0.35000000 0.65000000 0.000184
-0.40000000 0.90000000 -0.70000000 0.000184
0.55000000 0.75000000 -0.70000000 0.000184
-1.00000000 -1.00000000 0.10000000 0.000184
-0.45000000 0.95000000 -0.60000000 0.000184
0.40000000 -0.90000000 0.60000000 0.000184
0.25000000 -0.95000000 -0.80000000 0.000184
-0.80000000 0.95000000 -0.35000000 0.000184
0.95000000 -0.95000000 0.05000000 0.000184
0.10000000 -0.95000000 0.65000000 0.000184
-0.75000000 0.85000000 -0.50000000 0.000184
0.90000000 0.65000000 -0.45000000 0.000184
0.85000000 0.95000000 -0.10000000 0.000184
0.90000000 -0.40000000 0.55000000 0.000185
-0.10000000 0.55000000 0.95000000 0.000185
-0.90000000 0.25000000 -0.85000000 0.000185
0.30000000 0.70000000 -0.90000000 0.000185
-0.60000000 1.00000000 -0.45000000 0.000185
-0.90000000 0.45000000 -0.75000000 0.000185
-0.40000000 -0.95000000 0.60000000 0.000185
-0.80000000 0.15000000 0.80000000 0.000185
0.75000000 -0.60000000 0.60000000 0.000185
-0.50000000 0.75000000 0.70000000 0.000185
0.65000000 -0.55000000 -0.90000000 0.000185
-0.95000000 -0.05000000 0.70000000 0.000185
-0.05000000 1.00000000 0.50000000 0.000185
-0.10000000 -0.60000000 0.95000000 0.000185
0.95000000 -0.10000000 0.55000000 0.000185
-0.75000000 1.00000000 0.25000000 0.000185
-0.95000000 -0.75000000 0.40000000 0.000185
0.60000000 0.85000000 -0.55000000 0.000185
-0.35000000 0.80000000 -0.85000000 0.000186
-0.85000000 -0.55000000 0.60000000 0.000186
0.75000000 0.50000000 -0.75000000 0.000186
0.95000000 0.15000000 -0.70000000 0.000186
-0.55000000 -0.95000000 0.50000000 0.000186
-0.95000000 0.25000000 -0.80000000 0.000186
-0.70000000 -0.70000000 0.65000000 0.000186
-0.65000000 -0.10000000 0.95000000 0.000186
-0.90000000 0.95000000 0.15000000 0.000186
0.25000000 -0.90000000 -0.85000000 0.000186
0.15000000 0.70000000 0.80000000 0.000186
-0.05000000 0.55000000 0.95000000 0.000186
0.80000000 0.20000000 0.70000000 0.000187
0.05000000 0.95000000 0.55000000 0.000187
0.90000000 0.90000000 0.05000000 0.000187
0.50000000 -0.70000000 -0.90000000 0.000187
-0.60000000 -0.10000000 1.00000000 0.000187
0.55000000 0.90000000 0.40000000 0.000187
0.70000000 -0.35000000 -0.95000000 0.000187
0.55000000 0.55000000 0.75000000 0.000187
-0.70000000 -0.55000000 0.75000000 0.000187
0.35000000 0.35000000 1.00000000 0.000187
0.15000000 -0.90000000 0.70000000 0.000187
-0.60000000 -0.70000000 -0.90000000 0.000187
-0.85000000 0.95000000 -0.30000000 0.000187
0.40000000 -0.40000000 0.95000000 0.000187
-0.45000000 0.30000000 1.00000000 0.000187
0.80000000 0.35000000 -0.80000000 0.000188
0.75000000 -0.65000000 0.55000000 0.000188
0.05000000 -0.80000000 -1.00000000 0.000188
-0.95000000 0.40000000 0.55000000 0.000188
0.80000000 -1.00000000 0.25000000 0.000188
0.80000000 0.35000000 0.65000000 0.000188
0.40000000 0.70000000 -0.85000000 0.000188
0.90000000 -0.05000000 -0.80000000 0.000188
-0.10000000 -0.55000000 1.00000000 0.000188
-0.85000000 -0.05000000 -0.95000000 0.000188
-0.15000000 -0.65000000 0.90000000 0.000188
-0.35000000 0.95000000 -0.65000000 0.000189
-1.00000000 -0.15000000 0.65000000 0.000189
0.75000000 0.20000000 0.75000000 0.000189
1.00000000 0.25000000 -0.60000000 0.000189
-0.70000000 0.40000000 -0.95000000 0.000189
0.90000000 -0.10000000 -0.80000000 0.000189
0.65000000 -0.25000000 0.85000000 0.000189
0.80000000 -0.80000000 0.40000000 0.000189
-0.70000000 0.55000000 0.70000000 0.000189
0.65000000 0.10000000 0.85000000 0.000189
0.20000000 0.85000000 0.65000000 0.000189
0.20000000 1.00000000 0.45000000 0.000189
0.20000000 0.75000000 0.75000000 0.000189
-0.60000000 -0.80000000 0.65000000 0.000189
-0.80000000 0.40000000 0.70000000 0.000189
-0.10000000 -0.80000000 0.80000000 0.000189
1.00000000 -0.05000000 0.50000000 0.000189
-0.85000000 0.50000000 0.60000000 0.000190
0.65000000 0.40000000 -0.90000000 0.000190
-0.30000000 0.50000000 0.95000000 0.000190
-0.65000000 -0.55000000 -0.95000000 0.000190
0.95000000 -0.95000000 -0.10000000 0.000190
0.60000000 -0.85000000 0.50000000 0.000190
-0.10000000 -0.80000000 -1.00000000 0.000190
-0.95000000 0.70000000 0.35000000 0.000190
-0.25000000 -0.70000000 0.85000000 0.000190
0.15000000 0.50000000 0.95000000 0.000190
-0.90000000 0.55000000 0.50000000 0.000190
0.05000000 -0.55000000 1.00000000 0.000190
-0.95000000 0.50000000 -0.65000000 0.000190
0.45000000 -0.65000000 0.80000000 0.000190
1.00000000 -0.10000000 0.50000000 0.000190
0.10000000 0.65000000 -1.00000000 0.000190
0.65000000 -0.35000000 -1.00000000 0.000191
0.15000000 0.45000000 1.00000000 0.000191
0.00000000 -0.80000000 0.80000000 0.000191
0.85000000 -0.60000000 -0.65000000 0.000191
-0.65000000 0.15000000 0.90000000 0.000191
-0.35000000 -0.75000000 0.80000000 0.000191
0.90000000 -0.80000000 -0.40000000 0.000191
0.90000000 0.25000000 0.55000000 0.000191
0.40000000 -0.50000000 0.90000000 0.000191
-0.70000000 -0.40000000 -1.00000000 0.000191
0.85000000 0.30000000 0.60000000 0.000191
-0.35000000 0.70000000 0.80000000 0.000191
0.85000000 0.00000000 -0.85000000 0.000191
-0.45000000 -0.70000000 0.80000000 0.000191
-0.15000000 1.00000000 -0.65000000 0.000191
-0.70000000 0.00000000 0.90000000 0.000191
0.75000000 -0.85000000 0.40000000 0.000191
0.85000000 0.15000000 0.65000000 0.000192
-0.70000000 -0.75000000 0.60000000 0.000192
0.60000000 0.65000000 -0.75000000 0.000192
0.45000000 0.90000000 -0.60000000 0.000192
0.65000000 -0.95000000 -0.50000000 0.000192
0.50000000 -0.50000000 0.85000000 0.000192
0.60000000 0.40000000 0.80000000 0.000192
0.45000000 -0.95000000 0.50000000 0.000192
0.60000000 1.00000000 0.30000000 0.000193
-0.95000000 -0.15000000 -0.85000000 0.000193
0.45000000 -0.55000000 0.85000000 0.000193
-0.80000000 -0.55000000 -0.85000000 0.000193
0.95000000 0.35000000 -0.60000000 0.000193
0.85000000 -0.65000000 0.45000000 0.000193
-0.05000000 -0.80000000 0.80000000 0.000193
0.60000000 0.50000000 0.75000000 0.000193
-0.85000000 0.30000000 0.70000000 0.000193
0.85000000 0.40000000 0.55000000 0.000193
-0.65000000 -0.65000000 -0.90000000 0.000193
0.35000000 0.40000000 0.95000000 0.000193
-0.60000000 0.10000000 0.95000000 0.000193
-0.50000000 0.40000000 0.90000000 0.000193
0.50000000 0.95000000 -0.50000000 0.000193
-0.35000000 0.55000000 0.90000000 0.000193
-0.20000000 0.90000000 0.60000000 0.000193
0.70000000 0.15000000 0.80000000 0.000193
-0.40000000 -0.45000000 1.00000000 0.000193
0.85000000 0.60000000 -0.55000000 0.000193
0.80000000 -0.05000000 -0.90000000 0.000193
0.50000000 0.75000000 0.60000000 0.000193
-0.55000000 0.75000000 -0.80000000 0.000193
-0.85000000 0.80000000 0.35000000 0.000194
-1.00000000 -0.50000000 0.50000000 0.000194
-0.85000000 0.45000000 -0.80000000 0.000194
-0.95000000 -0.30000000 0.65000000 0.000194
0.90000000 -0.85000000 -0.35000000 0.000194
-0.35000000 0.80000000 0.70000000 0.000194
0.50000000 0.10000000 1.00000000 0.000194
0.35000000 -0.80000000 -0.90000000 0.000194
-0.50000000 -0.60000000 0.85000000 0.000194
0.40000000 -0.65000000 -1.00000000 0.000194
0.85000000 -0.95000000 -0.30000000 0.000194
0.80000000 -0.15000000 -0.90000000 0.000194
-0.80000000 -0.55000000 0.65000000 0.000194
-0.55000000 0.65000000 0.75000000 0.000194
0.60000000 -0.45000000 -1.00000000 0.000194
0.55000000 0.05000000 0.95000000 0.000195
-0.35000000 -0.60000000 0.90000000 0.000195
-1.00000000 -0.70000000 0.40000000 0.000195
0.45000000 -0.90000000 -0.75000000 0.000195
-0.55000000 0.90000000 -0.60000000 0.000195
0.90000000 0.05000000 0.60000000 0.000195
-1.00000000 0.40000000 0.50000000 0.000195
0.60000000 -0.50000000 0.80000000 0.000195
0.50000000 1.00000000 -0.45000000 0.000195
-0.95000000 -0.65000000 0.45000000 0.000195
-0.95000000 -0.40000000 0.60000000 0.000195
-0.40000000 0.65000000 -0.95000000 0.000195
-0.05000000 -0.55000000 1.00000000 0.000195
-0.30000000 -0.80000000 -0.95000000 0.000195
-0.95000000 0.05000000 -0.85000000 0.000195
-0.55000000 0.80000000 0.60000000 0.000195
-0.80000000 -0.10000000 -1.00000000 0.000195
-0.45000000 -0.95000000 -0.75000000 0.000195
0.90000000 0.30000000 -0.70000000 0.000195
-0.75000000 0.20000000 -1.00000000 0.000195
-0.10000000 0.95000000 0.55000000 0.000195
0.65000000 0.90000000 0.35000000 0.000196
-0.50000000 0.30000000 0.95000000 0.000196
-0.40000000 -0.65000000 0.85000000 0.000196
-0.90000000 -0.35000000 -0.85000000 0.000196
-0.35000000 -1.00000000 -0.75000000 0.000196
0.30000000 0.55000000 -1.00000000 0.000196
0.90000000 0.90000000 -0.10000000 0.000196
0.55000000 -0.80000000 0.60000000 0.000196
-0.55000000 0.10000000 1.00000000 0.000196
-1.00000000 0.90000000 -0.15000000 0.000196
0.40000000 0.50000000 0.85000000 0.000196
-0.60000000 -0.95000000 -0.65000000 0.000196
-0.60000000 0.50000000 -0.95000000 0.000196
-0.80000000 -0.30000000 0.80000000 0.000196
-1.00000000 0.50000000 -0.60000000 0.000196
-0.90000000 0.00000000 -0.90000000 0.000196
-0.90000000 0.30000000 0.65000000 0.000196
-0.45000000 0.80000000 -0.80000000 0.000196
0.45000000 -0.20000000 1.00000000 0.000196
0.45000000 -0.80000000 -0.85000000 0.000196
0.05000000 -1.00000000 -0.80000000 0.000196
0.70000000 0.35000000 0.75000000 0.000196
0.00000000 -0.55000000 1.00000000 0.000197
-0.90000000 -0.10000000 -0.90000000 0.000197
-0.75000000 -0.55000000 0.70000000 0.000197
-0.65000000 -0.80000000 0.60000000 0.000197
-0.25000000 1.00000000 0.45000000 0.000197
-0.70000000 -0.20000000 0.90000000 0.000197
0.10000000 -0.60000000 0.95000000 0.000197
-0.05000000 -0.80000000 -1.00000000 0.000197
-0.75000000 -0.70000000 -0.80000000 0.000197
0.60000000 -1.00000000 -0.50000000 0.000197
-0.95000000 -0.35000000 -0.80000000 0.000197
0.00000000 -0.80000000 -1.00000000 0.000197
-0.70000000 -0.75000000 -0.80000000 0.000197
-0.20000000 0.95000000 -0.70000000 0.000197
0.55000000 -0.70000000 0.70000000 0.000197
0.00000000 0.60000000 0.90000000 0.000197
1.00000000 -0.45000000 -0.55000000 0.000197
-0.95000000 -0.55000000 0.50000000 0.000197
-0.30000000 -0.50000000 1.00000000 0.000198
0.40000000 0.30000000 1.00000000 0.000198
0.70000000 0.55000000 -0.75000000 0.000198
-1.00000000 0.00000000 0.65000000 0.000198
-0.50000000 -0.35000000 1.00000000 0.000198
0.30000000 -0.50000000 0.95000000 0.000198
-0.30000000 -0.90000000 0.70000000 0.000198
0.70000000 0.15000000 -0.95000000 0.000198
-0.60000000 0.25000000 0.90000000 0.000198
0.65000000 0.60000000 -0.75000000 0.000198
-0.90000000 1.00000000 -0.10000000 0.000198
1.00000000 -0.60000000 -0.45000000 0.000198
0.55000000 0.50000000 -0.90000000 0.000198
-0.90000000 -0.55000000 -0.75000000 0.000198
-0.80000000 0.00000000 -1.00000000 0.000198
-0.20000000 -1.00000000 0.60000000 0.000198
0.20000000 0.85000000 -0.80000000 0.000198
0.55000000 -0.65000000 -0.90000000 0.000198
-0.40000000 -0.80000000 0.75000000 0.000198
-0.80000000 -0.40000000 0.75000000 0.000199
0.80000000 0.55000000 -0.65000000 0.000199
0.40000000 0.85000000 -0.70000000 0.000199
-0.95000000 -0.60000000 -0.65000000 0.000199
-0.45000000 0.75000000 -0.85000000 0.000199
-0.30000000 -0.55000000 0.95000000 0.000199
0.55000000 0.75000000 0.55000000 0.000199
0.10000000 -0.85000000 0.75000000 0.000199
-0.55000000 -0.80000000 -0.85000000 0.000199
0.00000000 1.00000000 -0.65000000 0.000199
0.80000000 0.70000000 0.40000000 0.000199
0.05000000 0.65000000 0.85000000 0.000199
0.25000000 0.90000000 0.55000000 0.000199
-1.00000000 -0.60000000 -0.60000000 0.000199
0.30000000 -0.90000000 0.65000000 0.000199
0.55000000 -0.05000000 0.95000000 0.000199
0.80000000 -0.55000000 -0.75000000 0.000199
0.65000000 -0.45000000 -0.95000000 0.000199
-0.65000000 -1.00000000 -0.55000000 0.000199
-0.55000000 0.55000000 0.80000000 0.000199
0.80000000 -0.10000000 -0.90000000 0.000199
-0.95000000 0.35000000 -0.75000000 0.000200
-0.90000000 0.75000000 0.35000000 0.000200
-0.80000000 -0.90000000 0.40000000 0.000200
0.75000000 -0.70000000 0.50000000 0.000200
-0.80000000 0.20000000 -0.95000000 0.000200
0.05000000 -1.00000000 0.60000000 0.000200
-0.45000000 -0.85000000 -0.85000000 0.000200
0.55000000 0.35000000 0.85000000 0.000200
-0.50000000 0.50000000 0.85000000 0.000200
-0.15000000 0.60000000 0.90000000 0.000200
0.60000000 0.05000000 0.90000000 0.000200
0.75000000 0.75000000 0.40000000 0.000200
-1.00000000 -0.60000000 0.45000000 0.000200
0.85000000 -0.15000000 -0.85000000 0.000200
-0.65000000 -0.75000000 0.65000000 0.000200
-0.45000000 0.65000000 0.80000000 0.000201
-0.40000000 0.60000000 0.85000000 0.000201
-0.05000000 -0.60000000 0.95000000 0.000201
0.60000000 -0.60000000 -0.90000000 0.000201
-0.90000000 -0.05000000 -0.90000000 0.000201
-0.80000000 0.90000000 0.30000000 0.000201
0.70000000 -0.60000000 0.65000000 0.000201
0.50000000 0.50000000 0.80000000 0.000201
0.85000000 -0.65000000 -0.60000000 0.000201
-0.65000000 -0.95000000 -0.60000000 0.000201
-0.80000000 0.90000000 -0.40000000 0.000201
-0.80000000 -0.30000000 -0.95000000 0.000202
0.20000000 -0.50000000 1.00000000 0.000202
0.90000000 0.80000000 -0.30000000 0.000202
-0.25000000 0.65000000 0.85000000 0.000202
0.45000000 0.95000000 0.40000000 0.000202
-0.75000000 -0.40000000 -0.95000000 0.000202
0.50000000 -0.60000000 0.80000000 0.000202
-0.25000000 0.95000000 0.50000000 0.000202
0.35000000 -0.95000000 -0.75000000 0.000202
0.80000000 0.90000000 -0.30000000 0.000202
0.90000000 -0.50000000 -0.65000000 0.000202
0.05000000 -0.95000000 0.65000000 0.000202
-0.70000000 0.45000000 0.75000000 0.000202
0.20000000 -0.70000000 0.85000000 0.000203
-0.70000000 0.35000000 0.80000000 0.000203
0.30000000 -0.80000000 0.75000000 0.000203
0.65000000 -0.60000000 0.70000000 0.000203
-0.90000000 -0.30000000 0.70000000 0.000203
-1.00000000 -0.20000000 -0.80000000 0.000203
0.55000000 -0.75000000 0.65000000 0.000203
-0.80000000 -0.05000000 -1.00000000 0.000203
0.95000000 -0.60000000 -0.50000000 0.000203
0.10000000 0.70000000 -0.95000000 0.000203
-0.75000000 -0.30000000 -1.00000000 0.000203
-1.00000000 -0.10000000 0.65000000 0.000203
0.60000000 0.80000000 -0.60000000 0.000203
-0.10000000 1.00000000 -0.65000000 0.000203
0.60000000 -0.80000000 0.55000000 0.000203
-0.90000000 -0.80000000 0.40000000 0.000204
-0.60000000 0.80000000 -0.70000000 0.000204
-0.35000000 0.40000000 1.00000000 0.000204
-0.25000000 -0.95000000 0.65000000 0.000204
-0.50000000 0.85000000 0.55000000 0.000204
0.15000000 0.90000000 -0.75000000 0.000204
0.20000000 1.00000000 -0.60000000 0.000204
0.80000000 0.50000000 0.55000000 0.000204
0.60000000 0.80000000 0.45000000 0.000204
0.40000000 0.65000000 0.75000000 0.000204
-0.30000000 0.65000000 -1.00000000 0.000204
0.00000000 0.95000000 0.55000000 0.000204
-0.95000000 0.95000000 -0.10000000 0.000205
0.90000000 0.45000000 -0.60000000 0.000205
0.60000000 0.75000000 0.50000000 0.000205
-0.55000000 -0.90000000 -0.75000000 0.000205
0.60000000 -0.10000000 0.90000000 0.000205
0.80000000 0.20000000 -0.85000000 0.000205
0.90000000 -0.25000000 0.60000000 0.000205
0.85000000 -0.05000000 -0.85000000 0.000205
0.70000000 -0.70000000 0.55000000 0.000205
-0.30000000 -0.85000000 -0.90000000 0.000205
-0.70000000 0.30000000 -1.00000000 0.000205
0.70000000 -0.65000000 0.60000000 0.000205
0.35000000 -1.00000000 -0.70000000 0.000205
0.55000000 0.00000000 0.95000000 0.000205
-0.85000000 0.35000000 -0.85000000 0.000205
-0.45000000 -0.90000000 -0.80000000 0.000205
-0.65000000 0.45000000 -0.95000000 0.000205
-0.55000000 -0.65000000 -0.95000000 0.000205
0.20000000 0.80000000 0.70000000 0.000205
0.95000000 0.25000000 -0.65000000 0.000205
-0.80000000 -0.70000000 -0.75000000 0.000205
-0.70000000 -0.80000000 -0.75000000 0.000205
-0.50000000 -0.90000000 0.60000000 0.000205
-0.70000000 0.20000000 0.85000000 0.000205
0.70000000 0.90000000 -0.40000000 0.000205
0.50000000 1.00000000 0.35000000 0.000205
-0.35000000 -1.00000000 0.55000000 0.000205
0.60000000 -0.35000000 0.85000000 0.000206
0.50000000 -0.05000000 1.00000000 0.000206
0.30000000 0.85000000 0.60000000 0.000206
-0.95000000 -0.45000000 -0.75000000 0.000206
0.65000000 0.30000000 0.80000000 0.000206
-0.85000000 -0.60000000 0.55000000 0.000206
0.55000000 -0.55000000 0.80000000 0.000206
-0.85000000 -0.30000000 0.75000000 0.000206
-0.60000000 -0.60000000 -0.95000000 0.000206
0.60000000 0.45000000 -0.90000000 0.000206
0.60000000 -0.90000000 0.45000000 0.000206
1.00000000 -0.35000000 0.45000000 0.000206
0.75000000 -0.35000000 0.75000000 0.000206
-0.05000000 1.00000000 -0.65000000 0.000206
-1.00000000 0.65000000 0.35000000 0.000206
0.45000000 -0.30000000 0.95000000 0.000206
-0.40000000 -0.70000000 -1.00000000 0.000206
0.70000000 -0.95000000 -0.45000000 0.000206
0.60000000 0.25000000 0.85000000 0.000206
0.40000000 -0.70000000 -0.95000000 0.000206
0.75000000 1.00000000 0.15000000 0.000206
0.95000000 0.50000000 -0.50000000 0.000206
0.20000000 0.80000000 -0.85000000 0.000207
0.25000000 -1.00000000 -0.75000000 0.000207
-1.00000000 -0.05000000 0.65000000 0.000207
-0.20000000 -0.70000000 0.85000000 0.000207
0.35000000 -0.45000000 0.95000000 0.000207
-0.85000000 -0.40000000 0.70000000 0.000207
0.85000000 -0.70000000 -0.55000000 0.000207
-0.75000000 -0.80000000 -0.70000000 0.000207
1.00000000 0.50000000 -0.45000000 0.000207
0.05000000 0.95000000 -0.70000000 0.000207
0.60000000 -0.65000000 0.70000000 0.000207
-0.30000000 0.70000000 -0.95000000 0.000207
1.00000000 0.80000000 0.00000000 0.000207
0.55000000 0.45000000 0.80000000 0.000207
0.60000000 0.70000000 -0.70000000 0.000207
0.45000000 0.30000000 0.95000000 0.000207
0.90000000 0.70000000 -0.40000000 0.000207
-0.40000000 0.35000000 1.00000000 0.000207
-0.65000000 0.30000000 0.85000000 0.000207
-0.90000000 -0.40000000 0.65000000 0.000207
0.70000000 -0.55000000 -0.85000000 0.000207
-0.75000000 0.25000000 0.80000000 0.000207
-0.95000000 -0.10000000 -0.85000000 0.000207
0.65000000 0.85000000 -0.50000000 0.000208
-0.05000000 0.95000000 0.55000000 0.000208
-0.60000000 -0.50000000 0.85000000 0.000208
-0.60000000 -0.40000000 0.90000000 0.000208
0.15000000 -0.65000000 0.90000000 0.000208
0.45000000 0.65000000 -0.85000000 0.000208
-0.80000000 0.85000000 -0.45000000 0.000208
-0.85000000 0.40000000 0.65000000 0.000208
-0.80000000 -0.75000000 -0.70000000 0.000208
1.00000000 -0.35000000 -0.60000000 0.000208
0.80000000 1.00000000 0.00000000 0.000208
0.85000000 -0.10000000 -0.85000000 0.000208
0.25000000 -0.75000000 0.80000000 0.000208
0.65000000 0.15000000 -1.00000000 0.000208
0.45000000 0.45000000 -1.00000000 0.000208
0.25000000 0.45000000 0.95000000 0.000208
-0.45000000 -1.00000000 -0.70000000 0.000208
0.75000000 0.55000000 -0.70000000 0.000208
1.00000000 0.10000000 -0.65000000 0.000208
0.75000000 -0.35000000 -0.90000000 0.000208
0.40000000 -0.75000000 0.75000000 0.000208
-0.70000000 -0.95000000 -0.55000000 0.000208
-1.00000000 0.10000000 -0.80000000 0.000209
0.85000000 0.20000000 -0.80000000 0.000209
0.10000000 -0.90000000 0.70000000 0.000209
-0.90000000 0.40000000 0.60000000 0.000209
-0.80000000 1.00000000 0.20000000 0.000209
0.50000000 0.65000000 0.70000000 0.000209
-0.45000000 -0.40000000 1.00000000 0.000209
-1.00000000 0.25000000 -0.75000000 0.000209
0.95000000 0.20000000 0.50000000 0.000209
0.65000000 -0.80000000 0.50000000 0.000209
-0.85000000 -0.45000000 -0.85000000 0.000209
0.25000000 0.40000000 1.00000000 0.000209
0.45000000 -0.85000000 -0.80000000 0.000209
-0.10000000 -0.65000000 0.90000000 0.000209
-0.95000000 0.55000000 -0.60000000 0.000209
-0.35000000 0.75000000 0.75000000 0.000210
0.70000000 -0.45000000 0.75000000 0.000210
-0.25000000 -0.85000000 0.75000000 0.000210
1.00000000 0.80000000 -0.05000000 0.000210
0.80000000 -0.35000000 0.70000000 0.000210
-0.95000000 0.00000000 -0.85000000 0.000210
-0.30000000 -0.90000000 -0.85000000 0.000210
-0.45000000 -0.55000000 0.90000000 0.000210
-0.55000000 -0.70000000 0.75000000 0.000210
0.85000000 -0.35000000 -0.80000000 0.000210
0.20000000 0.60000000 -1.00000000 0.000210
-0.55000000 0.20000000 0.95000000 0.000210
0.75000000 0.35000000 0.70000000 0.000210
-0.85000000 -0.85000000 0.40000000 0.000210
0.60000000 0.75000000 -0.65000000 0.000211
-0.75000000 -0.25000000 0.85000000 0.000211
-0.05000000 0.60000000 0.90000000 0.000211
-0.25000000 0.85000000 0.65000000 0.000211
-1.00000000 -0.40000000 0.55000000 0.000211
-0.90000000 0.35000000 -0.80000000 0.000211
0.85000000 0.65000000 -0.50000000 0.000211
-0.85000000 -0.55000000 -0.80000000 0.000211
-0.10000000 0.60000000 0.90000000 0.000211
-0.50000000 0.20000000 1.00000000 0.000211
0.25000000 -0.60000000 0.90000000 0.000212
0.85000000 -0.45000000 -0.75000000 0.000212
-0.40000000 0.85000000 0.60000000 0.000212
-0.70000000 -0.90000000 0.45000000 0.000212
-0.40000000 -0.75000000 -0.95000000 0.000212
-0.70000000 -0.05000000 0.90000000 0.000212
-1.00000000 0.35000000 -0.70000000 0.000212
0.70000000 -0.75000000 0.50000000 0.000212
0.80000000 1.00000000 -0.05000000 0.000212
0.75000000 -0.55000000 -0.80000000 0.000212
-0.50000000 0.65000000 -0.90000000 0.000212
0.40000000 -0.85000000 0.65000000 0.000212
0.00000000 -0.60000000 0.95000000 0.000212
0.05000000 -0.60000000 0.95000000 0.000212
0.95000000 -0.25000000 -0.70000000 0.000212
-0.15000000 -1.00000000 -0.80000000 0.000212
-0.45000000 0.45000000 0.90000000 0.000212
0.95000000 0.85000000 0.00000000 0.000212
1.00000000 -0.20000000 -0.65000000 0.000213
0.65000000 -0.20000000 0.85000000 0.000213
0.65000000 -0.75000000 0.55000000 0.000213
0.85000000 -0.50000000 0.55000000 0.000213
-0.80000000 0.95000000 0.25000000 0.000213
-1.00000000 -0.30000000 0.60000000 0.000213
-0.75000000 0.55000000 0.65000000 0.000213
0.55000000 0.35000000 -1.00000000 0.000213
-0.75000000 0.05000000 0.85000000 0.000213
-0.95000000 0.90000000 0.15000000 0.000213
-0.90000000 1.00000000 0.00000000 0.000213
1.00000000 0.75000000 0.15000000 0.000213
0.80000000 -0.45000000 0.65000000 0.000213
0.25000000 -0.95000000 0.60000000 0.000213
0.85000000 0.95000000 0.00000000 0.000214
-0.95000000 -0.05000000 -0.85000000 0.000214
0.85000000 0.55000000 0.45000000 0.000214
0.85000000 -0.75000000 -0.50000000 0.000214
-0.40000000 1.00000000 0.40000000 0.000214
0.50000000 0.05000000 1.00000000 0.000214
-0.50000000 0.85000000 -0.70000000 0.000214
0.75000000 0.45000000 0.65000000 0.000214
0.65000000 -0.90000000 -0.55000000 0.000214
0.65000000 0.05000000 0.85000000 0.000214
0.85000000 0.85000000 -0.30000000 0.000214
0.50000000 -0.20000000 0.95000000 0.000214
-0.15000000 -1.00000000 0.60000000 0.000214
-0.45000000 0.55000000 0.85000000 0.000214
0.10000000 0.70000000 0.80000000 0.000214
0.30000000 -0.85000000 0.70000000 0.000215
-0.30000000 -0.75000000 -1.00000000 0.000215
0.00000000 -1.00000000 -0.80000000 0.000215
0.60000000 -0.90000000 -0.60000000 0.000215
0.90000000 0.00000000 0.60000000 0.000215
-0.85000000 0.15000000 0.75000000 0.000215
-0.45000000 0.55000000 -1.00000000 0.000215
0.60000000 -0.75000000 0.60000000 0.000215
0.85000000 -0.90000000 -0.35000000 0.000215
-0.50000000 0.60000000 0.80000000 0.000215
0.25000000 -1.00000000 0.55000000 0.000215
0.50000000 -0.35000000 0.90000000 0.000215
-0.55000000 -0.85000000 -0.80000000 0.000215
-0.50000000 0.95000000 0.40000000 0.000215
-0.55000000 -0.55000000 0.85000000 0.000215
-0.90000000 0.60000000 0.45000000 0.000215
0.70000000 0.45000000 0.70000000 0.000215
0.30000000 -0.65000000 0.85000000 0.000215
0.95000000 0.85000000 -0.05000000 0.000216
0.70000000 0.30000000 -0.90000000 0.000216
-0.95000000 -1.00000000 -0.25000000 0.000216
0.00000000 -1.00000000 0.60000000 0.000216
1.00000000 -0.90000000 0.00000000 0.000216
0.20000000 -0.80000000 -0.95000000 0.000216
0.30000000 0.70000000 0.75000000 0.000216
-0.30000000 -0.95000000 -0.80000000 0.000216
0.65000000 -0.65000000 0.65000000 0.000216
0.20000000 0.60000000 0.85000000 0.000216
0.45000000 0.50000000 -0.95000000 0.000216
0.35000000 0.65000000 -0.90000000 0.000216
0.90000000 0.35000000 0.50000000 0.000216
-0.25000000 0.45000000 1.00000000 0.000216
-0.85000000 0.55000000 0.55000000 0.000216
-0.20000000 0.65000000 0.85000000 0.000216
-0.65000000 -0.60000000 0.75000000 0.000216
0.60000000 0.00000000 0.90000000 0.000216
0.40000000 0.35000000 0.95000000 0.000217
-1.00000000 0.85000000 -0.25000000 0.000217
0.60000000 -0.70000000 0.65000000 0.000217
0.70000000 -0.30000000 0.80000000 0.000217
0.65000000 -0.70000000 0.60000000 0.000217
-0.40000000 -0.50000000 0.95000000 0.000217
-0.75000000 0.30000000 -0.95000000 0.000217
-0.70000000 -0.15000000 0.90000000 0.000217
0.85000000 0.95000000 -0.05000000 0.000217
0.95000000 -0.45000000 0.45000000 0.000217
-0.60000000 0.65000000 -0.85000000 0.000217
-1.00000000 -0.45000000 -0.70000000 0.000217
1.00000000 -0.90000000 -0.05000000 0.000217
-1.00000000 0.55000000 -0.55000000 0.000218
1.00000000 -0.85000000 0.15000000 0.000218
0.45000000 0.45000000 0.85000000 0.000218
0.05000000 -0.85000000 0.75000000 0.000218
0.10000000 0.90000000 0.60000000 0.000218
0.60000000 -0.05000000 0.90000000 0.000218
0.75000000 -0.95000000 -0.40000000 0.000218
-0.70000000 -0.45000000 0.80000000 0.000218
0.30000000 0.95000000 0.45000000 0.000218
0.15000000 0.75000000 -0.90000000 0.000218
0.45000000 -0.90000000 0.55000000 0.000218
-0.60000000 0.80000000 0.55000000 0.000218
-0.15000000 0.95000000 -0.70000000 0.000218
0.50000000 0.00000000 1.00000000 0.000218
-1.00000000 -0.95000000 -0.25000000 0.000219
0.80000000 -0.95000000 -0.35000000 0.000219
-0.65000000 0.80000000 -0.65000000 0.000219
-0.95000000 -0.65000000 -0.60000000 0.000219
-0.90000000 -0.70000000 0.45000000 0.000219
0.35000000 -0.85000000 -0.85000000 0.000219
-0.70000000 -0.35000000 0.85000000 0.000219
0.65000000 -1.00000000 -0.45000000 0.000219
-0.90000000 -0.45000000 -0.80000000 0.000219
-0.40000000 0.50000000 0.90000000 0.000219
-0.75000000 0.50000000 -0.85000000 0.000219
0.75000000 0.90000000 -0.35000000 0.000219
0.95000000 -0.45000000 -0.60000000 0.000219
-0.80000000 -0.60000000 0.60000000 0.000219
0.35000000 0.60000000 0.80000000 0.000219
0.85000000 -0.80000000 -0.45000000 0.000219
-0.75000000 0.80000000 -0.55000000 0.000219
0.80000000 -0.35000000 -0.85000000 0.000219
0.40000000 0.80000000 0.60000000 0.000220
0.00000000 -0.95000000 0.65000000 0.000220
-0.75000000 -0.75000000 -0.75000000 0.000220
0.90000000 0.75000000 -0.35000000 0.000220
0.15000000 0.55000000 0.90000000 0.000220
0.85000000 0.40000000 -0.70000000 0.000220
0.95000000 0.35000000 0.45000000 0.000220
0.70000000 0.10000000 0.80000000 0.000220
-0.95000000 0.95000000 0.00000000 0.000220
0.35000000 -0.95000000 0.55000000 0.000220
0.30000000 0.60000000 -0.95000000 0.000220
0.85000000 -0.85000000 -0.40000000 0.000220
-1.00000000 -0.35000000 -0.75000000 0.000220
-0.30000000 0.70000000 0.80000000 0.000220
0.80000000 0.60000000 -0.60000000 0.000220
-0.95000000 0.60000000 -0.55000000 0.000221
0.50000000 0.70000000 0.65000000 0.000221
-0.45000000 -0.95000000 0.55000000 0.000221
0.35000000 -0.90000000 -0.80000000 0.000221
0.65000000 0.65000000 -0.70000000 0.000221
0.00000000 0.65000000 0.85000000 0.000221
0.75000000 0.15000000 0.75000000 0.000221
-0.90000000 0.50000000 -0.70000000 0.000221
-0.70000000 0.80000000 -0.60000000 0.000221
-0.45000000 -1.00000000 0.50000000 0.000221
0.70000000 -0.90000000 -0.50000000 0.000221
0.20000000 -0.55000000 0.95000000 0.000221
0.50000000 0.40000000 0.85000000 0.000221
0.50000000 -0.90000000 -0.70000000 0.000221
-0.15000000 -0.70000000 0.85000000 0.000221
0.70000000 0.60000000 -0.70000000 0.000222
0.55000000 -0.25000000 0.90000000 0.000222
0.80000000 0.15000000 0.70000000 0.000222
-0.70000000 -0.10000000 0.90000000 0.000222
1.00000000 0.40000000 0.40000000 0.000222
0.40000000 0.75000000 -0.80000000 0.000222
0.80000000 0.95000000 0.15000000 0.000222
-0.55000000 1.00000000 0.35000000 0.000222
0.55000000 -0.90000000 -0.65000000 0.000222
-0.30000000 1.00000000 -0.60000000 0.000222
0.00000000 0.95000000 -0.70000000 0.000222
0.40000000 -0.80000000 0.70000000 0.000222
0.35000000 -0.35000000 1.00000000 0.000222
-0.60000000 0.90000000 -0.55000000 0.000223
0.40000000 1.00000000 -0.50000000 0.000223
-0.80000000 0.80000000 -0.50000000 0.000223
0.85000000 0.10000000 0.65000000 0.000223
-0.95000000 0.15000000 0.65000000 0.000223
-0.70000000 0.85000000 0.40000000 0.000223
1.00000000 0.25000000 0.45000000 0.000223
0.20000000 -0.75000000 -1.00000000 0.000224
-0.10000000 -1.00000000 0.60000000 0.000224
-0.55000000 -0.35000000 0.95000000 0.000224
1.00000000 -0.50000000 0.40000000 0.000224
0.25000000 0.65000000 0.80000000 0.000224
-0.15000000 0.90000000 0.60000000 0.000224
0.30000000 -0.70000000 -1.00000000 0.000224
0.90000000 0.65000000 0.35000000 0.000224
-0.65000000 0.60000000 0.70000000 0.000224
-0.05000000 -1.00000000 0.60000000 0.000224
-0.45000000 0.80000000 0.65000000 0.000224
-0.90000000 0.90000000 -0.30000000 0.000224
-1.00000000 0.90000000 0.05000000 0.000224
-0.50000000 -0.80000000 0.70000000 0.000224
0.95000000 -0.30000000 0.50000000 0.000224
-0.30000000 0.80000000 0.70000000 0.000225
0.95000000 -0.95000000 0.00000000 0.000225
0.30000000 0.55000000 0.85000000 0.000225
-0.55000000 -0.90000000 0.55000000 0.000225
0.40000000 0.80000000 -0.75000000 0.000225
-0.80000000 0.10000000 0.80000000 0.000225
-0.80000000 0.55000000 0.60000000 0.000225
0.30000000 1.00000000 -0.55000000 0.000225
-0.20000000 -0.95000000 0.65000000 0.000225
0.75000000 -0.45000000 0.70000000 0.000225
0.80000000 0.55000000 0.50000000 0.000226
-0.50000000 1.00000000 -0.50000000 0.000226
0.95000000 0.80000000 0.15000000 0.000226
-1.00000000 0.15000000 0.60000000 0.000226
-0.55000000 -0.25000000 1.00000000 0.000226
0.30000000 0.85000000 -0.75000000 0.000226
-0.90000000 1.00000000 -0.05000000 0.000226
-0.65000000 -0.30000000 0.90000000 0.000226
0.70000000 0.85000000 -0.45000000 0.000226
0.90000000 -0.75000000 0.35000000 0.000226
0.90000000 -0.20000000 0.60000000 0.000226
-0.65000000 -0.45000000 -1.00000000 0.000226
1.00000000 0.60000000 0.30000000 0.000226
-0.35000000 0.95000000 0.45000000 0.000226
0.15000000 0.95000000 0.50000000 0.000226
-0.45000000 0.35000000 0.95000000 0.000226
0.50000000 0.40000000 -1.00000000 0.000226
-0.60000000 -0.65000000 0.75000000 0.000227
-0.30000000 0.90000000 0.55000000 0.000227
-0.05000000 -1.00000000 -0.80000000 0.000227
0.50000000 0.60000000 -0.85000000 0.000227
-1.00000000 -0.65000000 -0.55000000 0.000227
0.75000000 0.15000000 -0.90000000 0.000227
0.95000000 -0.95000000 -0.05000000 0.000227
0.35000000 0.45000000 0.90000000 0.000227
-0.90000000 -0.60000000 0.50000000 0.000227
0.75000000 -0.90000000 -0.45000000 0.000227
0.90000000 0.90000000 0.00000000 0.000227
0.80000000 -0.90000000 -0.40000000 0.000227
-0.30000000 0.85000000 -0.80000000 0.000227
-0.10000000 -1.00000000 -0.80000000 0.000227
-0.95000000 0.65000000 -0.50000000 0.000228
0.85000000 0.70000000 -0.45000000 0.000228
0.70000000 -0.45000000 -0.90000000 0.000228
0.15000000 0.75000000 0.75000000 0.000228
-0.25000000 0.90000000 -0.75000000 0.000228
-0.15000000 0.65000000 0.85000000 0.000228
0.85000000 -0.30000000 0.65000000 0.000228
0.65000000 -0.15000000 0.85000000 0.000228
0.95000000 0.10000000 -0.70000000 0.000228
-0.75000000 -0.50000000 -0.90000000 0.000228
0.50000000 -0.75000000 -0.85000000 0.000229
-0.85000000 0.20000000 -0.90000000 0.000229
-0.10000000 0.95000000 -0.70000000 0.000229
-0.75000000 -0.95000000 -0.50000000 0.000229
1.00000000 -0.85000000 -0.20000000 0.000229
0.50000000 0.20000000 0.95000000 0.000229
0.05000000 -0.90000000 0.70000000 0.000229
0.80000000 -0.70000000 0.45000000 0.000229
0.90000000 0.45000000 0.45000000 0.000230
-0.05000000 0.95000000 -0.70000000 0.000230
0.45000000 -0.60000000 -1.00000000 0.000230
0.65000000 -0.40000000 0.80000000 0.000230
-0.30000000 -0.75000000 0.80000000 0.000230
-0.65000000 0.95000000 -0.45000000 0.000230
-0.85000000 0.60000000 0.50000000 0.000230
0.90000000 -0.05000000 0.60000000 0.000230
-0.30000000 -0.60000000 0.90000000 0.000230
0.65000000 0.80000000 -0.55000000 0.000230
0.70000000 0.40000000 -0.85000000 0.000231
0.90000000 0.90000000 -0.05000000 0.000231
0.95000000 -0.90000000 0.15000000 0.000231
0.65000000 0.95000000 0.30000000 0.000231
1.00000000 -0.70000000 0.30000000 0.000231
0.35000000 -0.70000000 0.80000000 0.000231
0.30000000 -0.75000000 -0.95000000 0.000231
-0.85000000 0.95000000 0.20000000 0.000231
0.60000000 0.35000000 -0.95000000 0.000231
0.15000000 0.85000000 0.65000000 0.000231
0.90000000 0.20000000 0.55000000 0.000231
-0.25000000 -0.90000000 0.70000000 0.000232
-0.65000000 0.80000000 0.50000000 0.000232
-0.95000000 -0.70000000 -0.55000000 0.000232
0.35000000 1.00000000 0.40000000 0.000232
-0.85000000 0.90000000 -0.35000000 0.000232
-0.90000000 0.15000000 0.70000000 0.000232
-0.20000000 -0.85000000 0.75000000 0.000232
0.40000000 0.95000000 -0.55000000 0.000232
-1.00000000 -0.15000000 -0.80000000 0.000232
0.75000000 0.60000000 -0.65000000 0.000232
0.90000000 -0.55000000 -0.60000000 0.000232
0.65000000 0.00000000 0.85000000 0.000233
0.90000000 -0.30000000 -0.75000000 0.000233
-0.70000000 -1.00000000 -0.50000000 0.000233
0.80000000 -1.00000000 -0.30000000 0.000233
-0.40000000 -0.90000000 0.65000000 0.000233
-0.05000000 -0.95000000 0.65000000 0.000233
-0.95000000 0.95000000 -0.05000000 0.000233
0.20000000 0.95000000 -0.65000000 0.000233
-0.05000000 -0.65000000 0.90000000 0.000234
0.15000000 1.00000000 0.45000000 0.000234
-0.45000000 0.60000000 -0.95000000 0.000234
-0.65000000 0.50000000 0.75000000 0.000234
-0.05000000 0.65000000 0.85000000 0.000234
0.00000000 -0.85000000 0.75000000 0.000234
0.55000000 -0.50000000 -1.00000000 0.000234
-0.25000000 -0.55000000 0.95000000 0.000234
-0.65000000 0.10000000 0.90000000 0.000234
-0.40000000 0.90000000 0.50000000 0.000234
0.10000000 0.45000000 1.00000000 0.000235
-1.00000000 0.25000000 0.55000000 0.000235
-0.35000000 0.45000000 0.95000000 0.000235
-0.75000000 -0.85000000 0.45000000 0.000235
0.90000000 0.15000000 -0.75000000 0.000235
0.50000000 0.90000000 -0.55000000 0.000235
0.90000000 -0.55000000 0.45000000 0.000235
0.80000000 -0.85000000 -0.45000000 0.000235
0.20000000 -0.85000000 -0.90000000 0.000235
-0.55000000 0.75000000 0.65000000 0.000235
-0.50000000 0.95000000 -0.55000000 0.000236
-0.60000000 0.05000000 0.95000000 0.000236
-1.00000000 -1.00000000 -0.15000000 0.000236
0.65000000 -0.85000000 0.45000000 0.000236
-0.60000000 -0.25000000 0.95000000 0.000236
-0.65000000 0.40000000 0.80000000 0.000236
-0.10000000 0.65000000 0.85000000 0.000236
-0.65000000 0.60000000 -0.85000000 0.000236
0.80000000 -0.60000000 -0.70000000 0.000236
0.30000000 0.75000000 -0.85000000 0.000236
-1.00000000 0.60000000 -0.50000000 0.000236
-0.95000000 -0.45000000 0.55000000 0.000236
0.55000000 0.20000000 0.90000000 0.000236
0.10000000 0.50000000 0.95000000 0.000236
-0.70000000 0.55000000 -0.85000000 0.000237
-0.95000000 0.25000000 0.60000000 0.000237
-0.25000000 0.50000000 0.95000000 0.000237
-0.95000000 0.45000000 0.50000000 0.000237
0.05000000 0.65000000 -1.00000000 0.000237
-0.55000000 -0.45000000 0.90000000 0.000237
-0.85000000 -0.30000000 -0.90000000 0.000237
0.45000000 0.85000000 -0.65000000 0.000237
0.90000000 -0.15000000 0.60000000 0.000237
0.65000000 0.70000000 -0.65000000 0.000237
-0.55000000 0.70000000 0.70000000 0.000237
0.80000000 -0.45000000 -0.80000000 0.000237
-0.50000000 0.90000000 0.45000000 0.000237
-0.15000000 -0.95000000 0.65000000 0.000237
0.50000000 0.30000000 0.90000000 0.000238
-0.55000000 0.05000000 1.00000000 0.000238
-0.85000000 -0.75000000 0.45000000 0.000238
0.65000000 -0.10000000 0.85000000 0.000238
-0.75000000 0.45000000 0.70000000 0.000238
-0.40000000 -0.85000000 0.70000000 0.000238
-0.25000000 0.70000000 0.80000000 0.000238
-0.35000000 -0.65000000 0.85000000 0.000238
0.90000000 -0.10000000 0.60000000 0.000238
0.35000000 0.90000000 -0.65000000 0.000238
-0.20000000 0.85000000 0.65000000 0.000239
0.85000000 0.25000000 0.60000000 0.000239
-0.75000000 -0.45000000 0.75000000 0.000239
0.80000000 0.65000000 -0.55000000 0.000239
-0.30000000 0.75000000 -0.90000000 0.000239
-0.30000000 0.75000000 0.75000000 0.000239
0.05000000 0.70000000 0.80000000 0.000239
-0.75000000 -0.60000000 0.65000000 0.000239
0.20000000 -0.95000000 -0.80000000 0.000239
-0.50000000 -0.65000000 0.80000000 0.000239
-0.85000000 0.80000000 -0.45000000 0.000239
0.50000000 0.85000000 0.45000000 0.000239
-0.50000000 -0.85000000 0.65000000 0.000239
0.90000000 -0.45000000 0.50000000 0.000239
0.65000000 -0.60000000 -0.85000000 0.000239
-0.80000000 0.25000000 0.75000000 0.000239
-0.80000000 -0.65000000 0.55000000 0.000240
-0.75000000 0.35000000 0.75000000 0.000240
-0.35000000 -0.95000000 0.60000000 0.000240
0.25000000 0.50000000 0.90000000 0.000240
-0.25000000 -0.50000000 1.00000000 0.000240
0.80000000 0.30000000 0.65000000 0.000240
-0.10000000 -0.95000000 0.65000000 0.000240
0.70000000 0.10000000 -0.95000000 0.000240
0.70000000 -1.00000000 -0.40000000 0.000240
0.65000000 -0.05000000 0.85000000 0.000240
0.40000000 0.60000000 -0.90000000 0.000240
-0.10000000 -0.70000000 0.85000000 0.000240
1.00000000 0.75000000 -0.20000000 0.000240
-1.00000000 0.05000000 -0.80000000 0.000240
0.70000000 -0.30000000 -0.95000000 0.000241
-0.40000000 0.85000000 -0.75000000 0.000241
0.45000000 0.80000000 0.55000000 0.000241
-0.50000000 -0.50000000 0.90000000 0.000241
-0.60000000 0.35000000 0.85000000 0.000241
0.10000000 0.90000000 -0.75000000 0.000241
0.05000000 0.70000000 -0.95000000 0.000241
-0.75000000 0.00000000 0.85000000 0.000241
-0.70000000 -0.60000000 0.70000000 0.000241
0.60000000 0.25000000 -1.00000000 0.000241
0.15000000 -0.70000000 0.85000000 0.000241
0.65000000 0.75000000 -0.60000000 0.000241
0.20000000 0.65000000 -0.95000000 0.000241
-0.55000000 0.30000000 0.90000000 0.000241
-0.95000000 0.70000000 -0.45000000 0.000241
0.75000000 -0.45000000 -0.85000000 0.000242
0.35000000 -1.00000000 0.50000000 0.000242
0.95000000 -0.35000000 -0.65000000 0.000242
0.95000000 0.15000000 0.50000000 0.000242
0.20000000 -0.90000000 -0.85000000 0.000242
0.90000000 -0.35000000 0.55000000 0.000242
0.55000000 -0.70000000 -0.85000000 0.000242
1.00000000 0.05000000 -0.65000000 0.000242
0.90000000 -1.00000000 0.05000000 0.000242
0.40000000 -0.25000000 1.00000000 0.000242
0.40000000 0.70000000 0.70000000 0.000242
0.80000000 -0.80000000 -0.50000000 0.000242
-0.85000000 0.85000000 -0.40000000 0.000243
0.10000000 -0.65000000 0.90000000 0.000243
-0.55000000 0.85000000 0.50000000 0.000243
1.00000000 -0.15000000 -0.65000000 0.000243
0.75000000 -0.85000000 -0.50000000 0.000243
0.75000000 1.00000000 -0.20000000 0.000243
0.20000000 -0.75000000 0.80000000 0.000243
0.75000000 0.85000000 -0.40000000 0.000243
0.70000000 0.05000000 0.80000000 0.000243
0.30000000 0.80000000 0.65000000 0.000243
-0.40000000 1.00000000 -0.55000000 0.000243
-0.75000000 0.40000000 -0.90000000 0.000243
0.55000000 0.60000000 0.70000000 0.000243
0.55000000 -0.40000000 0.85000000 0.000243
-0.85000000 0.85000000 0.30000000 0.000243
0.65000000 0.25000000 -0.95000000 0.000243
-0.80000000 -0.80000000 0.45000000 0.000243
0.25000000 -0.45000000 1.00000000 0.000243
0.85000000 0.75000000 -0.40000000 0.000244
-0.45000000 0.90000000 -0.65000000 0.000244
-0.90000000 0.55000000 -0.65000000 0.000244
-0.70000000 0.80000000 0.45000000 0.000244
-0.75000000 -0.60000000 -0.85000000 0.000244
0.15000000 0.85000000 -0.80000000 0.000244
-0.95000000 -0.25000000 0.65000000 0.000244
0.25000000 0.90000000 -0.70000000 0.000244
0.90000000 -0.40000000 -0.70000000 0.000244
-0.90000000 -0.60000000 -0.70000000 0.000244
0.65000000 -0.30000000 -1.00000000 0.000245
0.30000000 0.75000000 0.70000000 0.000245
-0.50000000 0.50000000 -1.00000000 0.000245
-0.15000000 -0.85000000 0.75000000 0.000245
0.85000000 0.30000000 -0.75000000 0.000245
-0.40000000 0.40000000 0.95000000 0.000245
-0.20000000 1.00000000 0.45000000 0.000245
0.45000000 -0.65000000 -0.95000000 0.000245
0.85000000 0.45000000 0.50000000 0.000245
0.45000000 0.20000000 1.00000000 0.000245
-0.05000000 -0.85000000 0.75000000 0.000245
0.90000000 0.55000000 0.40000000 0.000245
-0.95000000 0.85000000 -0.30000000 0.000245
-0.85000000 0.50000000 -0.75000000 0.000245
-0.50000000 -0.75000000 -0.90000000 0.000246
0.85000000 -0.55000000 0.50000000 0.000246
0.50000000 -0.55000000 -1.00000000 0.000246
-0.75000000 -0.20000000 0.85000000 0.000246
-0.70000000 0.90000000 0.35000000 0.000246
0.85000000 0.80000000 -0.35000000 0.000246
0.95000000 -0.90000000 -0.20000000 0.000246
0.70000000 -0.85000000 -0.55000000 0.000246
0.80000000 0.85000000 -0.35000000 0.000246
-0.90000000 0.20000000 -0.85000000 0.000246
0.90000000 -0.65000000 0.40000000 0.000246
0.70000000 0.80000000 -0.50000000 0.000246
0.70000000 0.65000000 -0.65000000 0.000246
-0.60000000 0.75000000 -0.75000000 0.000246
0.65000000 0.70000000 0.50000000 0.000246
-0.80000000 0.50000000 -0.80000000 0.000246
-0.60000000 0.90000000 0.40000000 0.000246
0.35000000 0.50000000 -1.00000000 0.000246
-0.85000000 0.75000000 -0.50000000 0.000247
0.45000000 0.60000000 0.75000000 0.000247
-0.95000000 0.60000000 0.40000000 0.000247
-0.95000000 -0.75000000 -0.50000000 0.000247
0.15000000 -0.50000000 1.00000000 0.000247
-0.80000000 -0.25000000 0.80000000 0.000247
0.55000000 0.55000000 -0.85000000 0.000247
0.60000000 -0.65000000 -0.85000000 0.000247
-0.45000000 -0.65000000 -1.00000000 0.000247
-0.90000000 0.70000000 -0.50000000 0.000247
0.40000000 0.90000000 0.45000000 0.000247
0.25000000 -0.80000000 0.75000000 0.000248
-0.20000000 0.95000000 0.50000000 0.000248
-0.40000000 -0.80000000 -0.90000000 0.000248
-0.25000000 0.80000000 0.70000000 0.000248
-0.60000000 -0.90000000 0.50000000 0.000248
0.05000000 0.90000000 0.60000000 0.000248
-0.30000000 0.95000000 -0.65000000 0.000248
0.00000000 -0.90000000 0.70000000 0.000249
0.80000000 -0.75000000 -0.55000000 0.000249
0.60000000 0.70000000 0.55000000 0.000249
-0.40000000 0.70000000 -0.90000000 0.000249
-0.70000000 0.60000000 0.65000000 0.000249
0.30000000 0.95000000 -0.60000000 0.000249
0.80000000 0.70000000 -0.50000000 0.000249
-0.60000000 0.65000000 0.70000000 0.000249
-0.55000000 0.60000000 -0.90000000 0.000249
-0.30000000 -1.00000000 0.55000000 0.000249
-0.20000000 0.70000000 0.80000000 0.000249
-0.10000000 -0.85000000 0.75000000 0.000249
0.15000000 0.80000000 0.70000000 0.000249
0.90000000 0.50000000 -0.55000000 0.000249
0.40000000 0.75000000 0.65000000 0.000249
0.55000000 0.70000000 0.60000000 0.000249
-0.30000000 0.55000000 0.90000000 0.000249
0.50000000 0.45000000 -0.95000000 0.000249
1.00000000 0.40000000 -0.50000000 0.000249
0.70000000 0.85000000 0.35000000 0.000250
-0.40000000 -0.70000000 0.80000000 0.000250
-0.45000000 -0.75000000 0.75000000 0.000250
0.95000000 -0.20000000 -0.70000000 0.000250
-0.30000000 0.80000000 -0.85000000 0.000250
-1.00000000 0.55000000 0.40000000 0.000250
-0.95000000 0.20000000 -0.80000000 0.000250
0.35000000 0.85000000 0.55000000 0.000250
-0.90000000 0.75000000 -0.45000000 0.000250
-0.10000000 0.90000000 0.60000000 0.000250
0.15000000 0.80000000 -0.85000000 0.000250
0.75000000 0.10000000 0.75000000 0.000250
-0.60000000 -0.50000000 -1.00000000 0.000251
0.75000000 0.30000000 -0.85000000 0.000251
0.85000000 0.05000000 0.65000000 0.000251
-0.70000000 -0.45000000 -0.95000000 0.000251
0.75000000 -0.75000000 0.45000000 0.000251
-0.95000000 0.35000000 0.55000000 0.000251
0.95000000 -0.65000000 -0.45000000 0.000251
-0.80000000 0.60000000 0.55000000 0.000251
1.00000000 -0.65000000 -0.40000000 0.000251
0.45000000 -0.70000000 0.75000000 0.000251
0.75000000 -1.00000000 -0.35000000 0.000251
0.30000000 -0.40000000 1.00000000 0.000251
-0.80000000 -0.45000000 0.70000000 0.000251
-0.65000000 -0.50000000 0.80000000 0.000251
-0.70000000 0.15000000 0.85000000 0.000251
0.60000000 -0.50000000 -0.95000000 0.000251
-0.25000000 -0.80000000 -0.95000000 0.000251
0.65000000 -0.85000000 -0.60000000 0.000251
-0.75000000 -0.90000000 -0.55000000 0.000251
0.30000000 0.80000000 -0.80000000 0.000251
0.40000000 -0.35000000 0.95000000 0.000251
0.90000000 -1.00000000 -0.10000000 0.000251
-0.60000000 -0.75000000 -0.85000000 0.000252
0.65000000 0.10000000 -1.00000000 0.000252
-0.75000000 0.15000000 -1.00000000 0.000252
