//X Y Z Consensus 
0.25000000 -0.25000000 0.75000000 0.009896
0.45000000 -0.20000000 0.70000000 0.009897
-0.60000000 -0.50000000 -0.70000000 0.009898
-0.05000000 0.30000000 -0.95000000 0.009901
0.60000000 -0.35000000 0.55000000 0.009901
0.10000000 -0.45000000 -0.90000000 0.009903
-0.20000000 -0.30000000 0.60000000 0.009904
0.65000000 0.95000000 -0.10000000 0.009904
-0.65000000 -0.10000000 -0.80000000 0.009905
0.85000000 0.10000000 0.40000000 0.009905
0.60000000 -0.30000000 -0.70000000 0.009906
0.90000000 0.10000000 -0.45000000 0.009906
-0.05000000 1.00000000 -0.40000000 0.009909
0.10000000 0.20000000 -1.00000000 0.009910
0.80000000 -0.50000000 0.35000000 0.009910
-0.60000000 -0.80000000 -0.50000000 0.009910
0.00000000 -0.85000000 -0.60000000 0.009911
0.20000000 -0.60000000 0.65000000 0.009912
0.65000000 0.20000000 0.55000000 0.009914
0.55000000 -0.45000000 0.55000000 0.009914
-0.40000000 0.20000000 -0.90000000 0.009914
0.15000000 -0.75000000 -0.65000000 0.009915
0.25000000 -1.00000000 0.35000000 0.009915
-0.40000000 0.05000000 -0.95000000 0.009916
0.30000000 0.40000000 0.65000000 0.009916
0.85000000 -0.65000000 0.25000000 0.009916
-0.65000000 -0.65000000 0.45000000 0.009917
0.35000000 -0.95000000 -0.45000000 0.009918
0.50000000 0.60000000 -0.55000000 0.009918
0.10000000 -0.70000000 0.60000000 0.009920
0.35000000 -0.15000000 -0.90000000 0.009922
-1.00000000 0.10000000 0.40000000 0.009924
-0.55000000 -0.70000000 -0.60000000 0.009924
0.55000000 -0.25000000 -0.75000000 0.009925
-0.60000000 0.60000000 0.45000000 0.009926
-0.45000000 -0.90000000 0.35000000 0.009928
-0.35000000 0.25000000 -0.90000000 0.009929
0.25000000 0.40000000 0.65000000 0.009932
-1.00000000 -0.25000000 -0.50000000 0.009933
0.20000000 -0.50000000 0.70000000 0.009934
-0.65000000 0.05000000 0.60000000 0.009934
-0.70000000 -0.50000000 0.50000000 0.009935
-0.30000000 -0.85000000 0.45000000 0.009935
-0.15000000 -0.10000000 0.55000000 0.009935
0.05000000 -0.30000000 0.70000000 0.009936
-0.30000000 0.35000000 0.60000000 0.009937
-0.50000000 0.30000000 0.60000000 0.009937
-0.20000000 -0.85000000 -0.60000000 0.009937
0.55000000 0.55000000 0.45000000 0.009938
-0.20000000 0.40000000 0.60000000 0.009940
-0.55000000 0.25000000 0.60000000 0.009941
-0.85000000 0.00000000 0.50000000 0.009942
-0.20000000 -0.05000000 0.55000000 0.009942
0.60000000 0.50000000 0.45000000 0.009943
-0.10000000 -0.40000000 0.65000000 0.009943
-0.50000000 -0.20000000 -0.90000000 0.009944
0.75000000 -0.60000000 -0.45000000 0.009946
-1.00000000 -0.35000000 0.35000000 0.009946
-0.40000000 0.80000000 -0.50000000 0.009950
-0.80000000 0.30000000 -0.60000000 0.009953
0.40000000 0.05000000 0.70000000 0.009953
0.75000000 -0.50000000 -0.50000000 0.009953
-0.40000000 0.10000000 0.60000000 0.009954
0.40000000 -0.45000000 0.65000000 0.009954
-0.40000000 0.05000000 0.60000000 0.009954
-0.35000000 0.30000000 0.60000000 0.009954
-0.85000000 0.15000000 -0.60000000 0.009954
-0.85000000 -0.10000000 0.50000000 0.009955
0.30000000 -0.40000000 -0.85000000 0.009955
-0.20000000 -0.60000000 0.60000000 0.009955
0.40000000 -0.85000000 -0.50000000 0.009957
-0.55000000 0.55000000 0.50000000 0.009958
0.30000000 0.45000000 -0.75000000 0.009959
0.70000000 -0.65000000 0.35000000 0.009960
0.00000000 -0.05000000 0.55000000 0.009960
-0.60000000 -0.60000000 0.50000000 0.009961
0.15000000 0.60000000 0.55000000 0.009961
0.50000000 -0.45000000 -0.70000000 0.009962
0.05000000 -1.00000000 0.40000000 0.009962
0.10000000 0.80000000 -0.55000000 0.009963
-0.05000000 -0.60000000 -0.80000000 0.009964
-0.35000000 -0.25000000 -1.00000000 0.009966
-1.00000000 -0.20000000 0.40000000 0.009966
0.85000000 0.30000000 0.35000000 0.009968
-0.85000000 -0.65000000 0.30000000 0.009969
-0.35000000 -0.75000000 0.50000000 0.009970
-0.70000000 0.05000000 -0.75000000 0.009972
0.00000000 -0.45000000 0.70000000 0.009973
0.60000000 1.00000000 0.00000000 0.009973
0.25000000 -0.05000000 0.70000000 0.009974
0.15000000 0.15000000 -1.00000000 0.009974
-0.65000000 -0.05000000 -0.80000000 0.009975
0.05000000 -0.50000000 0.70000000 0.009976
0.65000000 -0.05000000 -0.70000000 0.009976
-0.65000000 0.45000000 0.50000000 0.009976
0.05000000 -0.70000000 0.60000000 0.009977
-0.05000000 -0.35000000 0.65000000 0.009977
0.45000000 -0.75000000 0.45000000 0.009978
-0.75000000 -0.20000000 0.55000000 0.009979
-0.15000000 0.45000000 -0.85000000 0.009980
-0.25000000 0.50000000 0.60000000 0.009980
-0.05000000 -0.10000000 0.55000000 0.009981
0.65000000 -0.10000000 -0.70000000 0.009981
0.00000000 -0.30000000 0.65000000 0.009981
0.45000000 -0.75000000 -0.55000000 0.009981
-0.05000000 0.30000000 0.55000000 0.009983
-0.40000000 0.15000000 0.60000000 0.009985
0.00000000 -0.40000000 0.70000000 0.009985
0.60000000 -0.10000000 0.60000000 0.009986
0.55000000 0.70000000 -0.45000000 0.009987
0.80000000 0.05000000 0.45000000 0.009988
0.35000000 -0.05000000 -0.90000000 0.009989
0.55000000 -0.30000000 0.60000000 0.009989
-0.50000000 -0.80000000 -0.55000000 0.009990
0.45000000 -0.05000000 0.70000000 0.009990
0.10000000 -0.25000000 0.70000000 0.009990
0.25000000 -0.65000000 0.60000000 0.009990
-0.25000000 0.10000000 0.55000000 0.009991
-0.10000000 -0.30000000 0.60000000 0.009991
0.15000000 -0.30000000 -1.00000000 0.009992
-0.10000000 0.30000000 0.55000000 0.009994
-0.40000000 0.00000000 0.60000000 0.009994
0.45000000 -0.50000000 -0.70000000 0.009995
0.55000000 0.55000000 -0.55000000 0.009996
0.05000000 -0.25000000 0.65000000 0.009996
-0.80000000 0.20000000 0.50000000 0.009998
-0.45000000 -0.70000000 0.50000000 0.009999
0.00000000 0.65000000 -0.70000000 0.009999
-0.20000000 0.25000000 -0.95000000 0.010000
0.50000000 -0.85000000 -0.45000000 0.010000
-0.35000000 0.40000000 0.60000000 0.010002
0.70000000 0.45000000 -0.50000000 0.010004
-0.65000000 0.30000000 0.55000000 0.010005
0.35000000 -0.10000000 -0.90000000 0.010005
0.35000000 0.05000000 0.70000000 0.010008
-0.35000000 -0.15000000 0.60000000 0.010008
0.35000000 0.20000000 -0.85000000 0.010008
-0.40000000 0.35000000 0.60000000 0.010008
-0.25000000 -0.30000000 0.60000000 0.010009
-0.75000000 -0.15000000 -0.70000000 0.010010
-0.25000000 0.40000000 0.60000000 0.010012
-0.35000000 0.35000000 0.60000000 0.010012
0.25000000 -0.50000000 -0.80000000 0.010015
-0.25000000 0.05000000 0.55000000 0.010016
-0.60000000 0.80000000 0.30000000 0.010016
-0.65000000 -0.15000000 0.60000000 0.010017
0.30000000 0.60000000 -0.65000000 0.010018
-0.20000000 0.25000000 0.55000000 0.010018
-0.25000000 -0.35000000 -1.00000000 0.010019
0.40000000 0.35000000 -0.75000000 0.010019
0.35000000 -0.50000000 0.65000000 0.010020
-0.25000000 0.15000000 0.55000000 0.010020
-0.60000000 -0.30000000 0.60000000 0.010020
-0.70000000 -0.60000000 0.45000000 0.010022
0.10000000 -0.10000000 0.60000000 0.010022
1.00000000 -0.15000000 0.30000000 0.010023
0.50000000 0.05000000 -0.80000000 0.010023
-0.30000000 -0.65000000 -0.75000000 0.010023
-0.10000000 0.65000000 -0.70000000 0.010023
-0.25000000 0.75000000 0.45000000 0.010024
-0.20000000 0.75000000 -0.60000000 0.010024
0.15000000 0.00000000 0.60000000 0.010025
0.35000000 -0.50000000 -0.75000000 0.010025
-0.30000000 0.10000000 -1.00000000 0.010026
-0.40000000 0.55000000 0.55000000 0.010027
0.35000000 0.40000000 -0.75000000 0.010028
-0.30000000 0.45000000 0.60000000 0.010029
-0.40000000 0.20000000 0.60000000 0.010029
-0.35000000 -0.75000000 -0.65000000 0.010029
-0.25000000 0.15000000 -1.00000000 0.010029
0.05000000 0.40000000 0.60000000 0.010030
0.05000000 -0.70000000 -0.70000000 0.010032
0.40000000 0.80000000 -0.45000000 0.010032
-0.30000000 -0.25000000 0.60000000 0.010032
0.40000000 -0.25000000 -0.85000000 0.010035
-0.85000000 -0.05000000 0.50000000 0.010035
0.05000000 0.45000000 -0.85000000 0.010036
-0.90000000 -0.25000000 -0.55000000 0.010037
0.60000000 0.10000000 0.60000000 0.010037
-0.10000000 -0.55000000 -0.85000000 0.010039
0.05000000 0.70000000 -0.65000000 0.010040
-0.10000000 -0.75000000 0.55000000 0.010040
0.50000000 0.45000000 0.55000000 0.010040
-0.55000000 0.45000000 -0.70000000 0.010041
0.45000000 -0.15000000 0.70000000 0.010042
0.30000000 0.50000000 0.60000000 0.010043
-0.30000000 0.40000000 0.60000000 0.010044
-0.30000000 0.60000000 0.55000000 0.010044
0.15000000 -0.20000000 0.70000000 0.010045
0.65000000 0.70000000 0.30000000 0.010045
0.65000000 -0.40000000 0.50000000 0.010047
-0.10000000 -1.00000000 0.40000000 0.010050
0.10000000 -0.20000000 0.65000000 0.010051
-0.25000000 -0.55000000 0.60000000 0.010051
-0.45000000 -1.00000000 0.30000000 0.010051
-0.35000000 -0.50000000 0.60000000 0.010052
0.75000000 -0.20000000 -0.60000000 0.010052
-0.65000000 0.00000000 0.60000000 0.010053
0.40000000 0.25000000 -0.80000000 0.010053
-0.05000000 0.45000000 0.60000000 0.010054
0.10000000 0.85000000 -0.50000000 0.010056
0.30000000 0.00000000 0.70000000 0.010056
0.45000000 -0.30000000 -0.80000000 0.010057
-0.85000000 0.60000000 -0.40000000 0.010059
0.85000000 -0.85000000 -0.15000000 0.010062
0.25000000 -0.35000000 -0.90000000 0.010062
-0.40000000 0.25000000 0.60000000 0.010062
-0.10000000 0.45000000 0.60000000 0.010064
-0.40000000 0.30000000 0.60000000 0.010064
0.15000000 0.25000000 0.60000000 0.010064
0.10000000 0.25000000 -0.95000000 0.010065
0.00000000 -0.60000000 0.65000000 0.010065
0.05000000 0.00000000 0.55000000 0.010065
0.05000000 0.25000000 0.55000000 0.010067
0.40000000 -0.30000000 0.70000000 0.010067
0.70000000 -0.45000000 0.45000000 0.010068
0.15000000 -0.35000000 -0.95000000 0.010068
0.45000000 -0.10000000 0.70000000 0.010068
-0.50000000 -0.45000000 -0.80000000 0.010068
-0.40000000 -0.05000000 0.60000000 0.010070
0.75000000 0.05000000 -0.60000000 0.010072
-0.45000000 -0.70000000 -0.65000000 0.010073
-0.50000000 -0.60000000 -0.70000000 0.010073
-0.85000000 -0.20000000 -0.60000000 0.010073
0.10000000 0.35000000 0.60000000 0.010075
0.65000000 -0.45000000 -0.60000000 0.010075
-0.10000000 -0.50000000 0.65000000 0.010076
-0.60000000 0.15000000 0.60000000 0.010077
-0.40000000 -0.25000000 -0.95000000 0.010077
0.20000000 0.15000000 -0.95000000 0.010078
-0.10000000 -0.45000000 0.65000000 0.010078
-0.45000000 0.30000000 0.60000000 0.010079
-0.50000000 0.00000000 -0.90000000 0.010079
-0.70000000 0.50000000 0.45000000 0.010081
0.20000000 0.45000000 -0.80000000 0.010083
1.00000000 0.60000000 -0.05000000 0.010084
0.40000000 0.45000000 0.60000000 0.010084
-0.60000000 0.50000000 0.50000000 0.010085
-0.70000000 0.25000000 -0.70000000 0.010085
-1.00000000 0.15000000 -0.50000000 0.010086
0.80000000 -0.10000000 0.45000000 0.010086
-0.25000000 0.00000000 0.55000000 0.010087
-0.20000000 0.50000000 0.60000000 0.010088
-0.25000000 -0.40000000 -0.95000000 0.010088
-0.45000000 -0.45000000 0.60000000 0.010088
0.25000000 0.05000000 -0.95000000 0.010088
0.25000000 1.00000000 -0.35000000 0.010089
0.40000000 0.10000000 -0.85000000 0.010090
0.00000000 0.45000000 0.60000000 0.010090
0.35000000 0.55000000 0.55000000 0.010091
0.80000000 0.25000000 -0.50000000 0.010091
0.00000000 0.30000000 0.55000000 0.010091
-0.30000000 0.60000000 -0.70000000 0.010092
-0.65000000 -0.55000000 0.50000000 0.010093
-0.20000000 -0.10000000 0.55000000 0.010093
-0.05000000 0.65000000 -0.70000000 0.010094
-0.15000000 0.45000000 0.60000000 0.010094
-0.65000000 -0.10000000 0.60000000 0.010094
0.20000000 0.65000000 0.50000000 0.010094
-0.15000000 0.30000000 0.55000000 0.010095
0.20000000 -0.05000000 0.65000000 0.010096
0.15000000 -0.50000000 0.70000000 0.010097
-0.45000000 -0.50000000 -0.80000000 0.010099
-1.00000000 0.25000000 0.35000000 0.010099
-0.55000000 0.70000000 0.40000000 0.010099
0.10000000 -0.50000000 0.70000000 0.010101
0.00000000 0.50000000 0.60000000 0.010102
0.25000000 0.15000000 0.65000000 0.010102
-0.45000000 0.45000000 -0.75000000 0.010103
0.40000000 0.60000000 -0.60000000 0.010103
0.55000000 0.25000000 -0.70000000 0.010104
-0.65000000 -0.05000000 0.60000000 0.010105
-0.05000000 0.75000000 0.45000000 0.010107
0.80000000 -0.70000000 -0.35000000 0.010107
-0.25000000 0.20000000 0.55000000 0.010107
-0.60000000 -0.40000000 -0.75000000 0.010107
-0.05000000 0.50000000 0.60000000 0.010107
-0.75000000 0.30000000 0.50000000 0.010107
-0.35000000 0.35000000 -0.85000000 0.010107
-0.20000000 -0.35000000 0.60000000 0.010108
-0.25000000 0.45000000 0.60000000 0.010109
-0.60000000 0.40000000 -0.70000000 0.010110
0.50000000 -0.40000000 0.60000000 0.010111
0.70000000 0.65000000 0.30000000 0.010113
0.15000000 0.40000000 -0.85000000 0.010114
-0.05000000 -0.85000000 -0.60000000 0.010116
0.20000000 -0.30000000 -0.95000000 0.010117
0.25000000 0.20000000 -0.90000000 0.010117
-0.20000000 -0.55000000 -0.85000000 0.010118
-0.10000000 -0.15000000 0.55000000 0.010119
-0.20000000 0.45000000 0.60000000 0.010119
0.20000000 -0.15000000 0.70000000 0.010119
0.50000000 -0.15000000 -0.80000000 0.010119
0.10000000 0.60000000 0.55000000 0.010120
-0.80000000 0.10000000 -0.65000000 0.010122
0.75000000 0.25000000 0.45000000 0.010123
-0.70000000 -0.10000000 -0.75000000 0.010123
-0.50000000 0.20000000 -0.85000000 0.010123
-0.10000000 0.50000000 0.60000000 0.010124
0.50000000 -0.25000000 0.65000000 0.010124
-0.15000000 0.50000000 0.60000000 0.010126
0.05000000 0.50000000 0.60000000 0.010127
0.25000000 0.10000000 0.65000000 0.010129
0.70000000 0.55000000 0.35000000 0.010132
0.60000000 -0.05000000 0.60000000 0.010134
0.25000000 0.20000000 0.65000000 0.010134
0.10000000 -0.90000000 0.45000000 0.010135
-0.35000000 -0.20000000 0.60000000 0.010135
-0.15000000 -0.15000000 0.55000000 0.010135
0.50000000 -1.00000000 0.25000000 0.010135
-0.35000000 -0.50000000 -0.85000000 0.010138
0.80000000 -0.20000000 -0.55000000 0.010140
-0.30000000 0.80000000 0.40000000 0.010140
-0.15000000 -0.35000000 0.60000000 0.010141
-0.35000000 0.85000000 0.35000000 0.010142
0.60000000 0.15000000 -0.70000000 0.010144
0.50000000 0.35000000 0.60000000 0.010146
0.15000000 -0.60000000 -0.75000000 0.010147
-0.15000000 0.70000000 -0.65000000 0.010149
-0.30000000 -0.45000000 -0.90000000 0.010150
0.20000000 0.05000000 -1.00000000 0.010152
0.50000000 0.15000000 0.65000000 0.010152
-0.55000000 0.90000000 0.25000000 0.010153
0.05000000 -0.35000000 0.70000000 0.010154
-0.65000000 -0.30000000 -0.75000000 0.010155
-0.20000000 0.80000000 -0.55000000 0.010156
0.15000000 0.55000000 -0.75000000 0.010156
-0.70000000 0.20000000 0.55000000 0.010159
-0.30000000 -0.50000000 0.60000000 0.010159
0.15000000 -0.15000000 0.65000000 0.010160
-0.50000000 -0.35000000 -0.85000000 0.010160
0.80000000 0.05000000 -0.55000000 0.010161
-0.65000000 0.65000000 -0.50000000 0.010162
-0.15000000 -0.85000000 -0.60000000 0.010162
0.10000000 -0.50000000 -0.85000000 0.010163
-0.50000000 0.25000000 0.60000000 0.010165
0.40000000 0.65000000 0.45000000 0.010166
-0.40000000 -0.10000000 0.60000000 0.010166
-0.25000000 -0.35000000 0.60000000 0.010167
-0.65000000 -0.60000000 -0.60000000 0.010167
0.05000000 -0.40000000 -0.95000000 0.010167
-0.10000000 -0.65000000 0.60000000 0.010168
0.60000000 0.05000000 0.60000000 0.010168
-0.15000000 -0.55000000 -0.85000000 0.010169
-0.70000000 0.00000000 -0.75000000 0.010170
-0.55000000 -0.25000000 -0.85000000 0.010171
0.90000000 0.60000000 -0.25000000 0.010171
-0.05000000 -0.65000000 -0.75000000 0.010172
-0.30000000 -0.30000000 0.60000000 0.010174
0.00000000 -0.25000000 0.60000000 0.010176
0.20000000 -0.80000000 -0.60000000 0.010177
-0.40000000 0.55000000 -0.70000000 0.010177
0.65000000 -0.15000000 0.55000000 0.010178
-0.55000000 -0.55000000 -0.70000000 0.010178
0.25000000 0.35000000 0.65000000 0.010179
-0.45000000 0.25000000 0.60000000 0.010179
-0.60000000 -0.75000000 0.40000000 0.010180
0.70000000 -0.35000000 -0.60000000 0.010181
-0.25000000 0.95000000 0.30000000 0.010181
0.65000000 -0.55000000 -0.55000000 0.010181
-0.75000000 0.05000000 -0.70000000 0.010182
0.40000000 0.00000000 0.70000000 0.010182
-0.95000000 -0.40000000 0.35000000 0.010184
-0.75000000 0.05000000 0.55000000 0.010187
-0.45000000 -0.30000000 -0.90000000 0.010187
0.10000000 0.50000000 0.60000000 0.010189
-0.65000000 0.55000000 0.45000000 0.010190
-0.80000000 -0.15000000 -0.65000000 0.010190
-0.55000000 0.20000000 0.60000000 0.010190
-0.25000000 -0.05000000 0.55000000 0.010193
-0.55000000 0.10000000 -0.85000000 0.010194
-0.55000000 -0.35000000 0.60000000 0.010194
0.05000000 0.45000000 0.60000000 0.010194
0.20000000 -0.65000000 -0.70000000 0.010194
0.70000000 0.00000000 -0.65000000 0.010195
0.25000000 0.25000000 0.65000000 0.010196
0.60000000 0.00000000 0.60000000 0.010197
0.20000000 -0.95000000 -0.50000000 0.010197
0.80000000 0.00000000 0.45000000 0.010197
0.55000000 0.35000000 -0.65000000 0.010197
0.15000000 0.20000000 -0.95000000 0.010201
-0.50000000 -0.55000000 0.55000000 0.010201
-0.50000000 -0.40000000 0.60000000 0.010203
0.10000000 0.80000000 0.40000000 0.010203
-0.50000000 -0.75000000 0.45000000 0.010205
0.15000000 0.30000000 -0.90000000 0.010205
-0.45000000 0.10000000 0.60000000 0.010206
-0.70000000 0.65000000 0.35000000 0.010206
0.45000000 -0.40000000 -0.75000000 0.010207
0.05000000 -0.20000000 0.60000000 0.010207
0.30000000 -0.90000000 -0.50000000 0.010207
-0.10000000 -0.85000000 -0.60000000 0.010208
-0.40000000 -0.85000000 -0.55000000 0.010209
-0.05000000 -0.30000000 0.60000000 0.010209
0.25000000 -0.10000000 0.70000000 0.010211
-0.25000000 -0.60000000 -0.80000000 0.010212
0.10000000 0.15000000 0.55000000 0.010213
0.60000000 -0.60000000 0.45000000 0.010213
0.55000000 0.10000000 -0.75000000 0.010213
-0.45000000 0.15000000 0.60000000 0.010214
-0.45000000 0.20000000 0.60000000 0.010215
-0.70000000 -0.85000000 -0.40000000 0.010215
-0.45000000 0.05000000 0.60000000 0.010215
-0.70000000 0.45000000 -0.60000000 0.010216
-0.50000000 0.75000000 -0.50000000 0.010217
0.85000000 0.75000000 -0.15000000 0.010218
0.00000000 -0.10000000 0.55000000 0.010219
-0.35000000 0.00000000 -1.00000000 0.010219
0.10000000 0.10000000 0.55000000 0.010219
0.10000000 -0.90000000 -0.55000000 0.010220
-0.70000000 -0.05000000 -0.75000000 0.010220
0.70000000 -0.25000000 0.50000000 0.010221
0.25000000 0.05000000 0.65000000 0.010221
-0.60000000 0.35000000 0.55000000 0.010221
-0.60000000 0.55000000 -0.60000000 0.010223
-0.30000000 -0.30000000 -1.00000000 0.010223
-0.15000000 0.20000000 -1.00000000 0.010224
0.25000000 -0.20000000 -0.95000000 0.010224
0.15000000 -0.60000000 0.65000000 0.010225
0.80000000 -0.05000000 0.45000000 0.010226
-0.45000000 0.50000000 0.55000000 0.010227
0.30000000 -0.60000000 -0.70000000 0.010228
-0.45000000 0.75000000 0.40000000 0.010228
-0.20000000 -0.80000000 0.50000000 0.010229
-0.60000000 0.30000000 -0.75000000 0.010229
0.35000000 0.00000000 0.70000000 0.010230
-0.05000000 -0.40000000 0.65000000 0.010230
0.70000000 -0.15000000 -0.65000000 0.010230
-0.20000000 -0.95000000 0.40000000 0.010232
-0.40000000 -0.60000000 -0.75000000 0.010232
0.35000000 0.30000000 -0.80000000 0.010232
0.45000000 0.25000000 0.65000000 0.010233
-0.05000000 -0.55000000 0.65000000 0.010233
0.05000000 -0.45000000 0.70000000 0.010233
0.55000000 0.45000000 -0.60000000 0.010234
0.25000000 0.30000000 0.65000000 0.010236
0.60000000 1.00000000 -0.05000000 0.010237
-0.10000000 -0.60000000 -0.80000000 0.010238
0.15000000 -0.05000000 0.60000000 0.010238
0.40000000 -0.45000000 -0.75000000 0.010239
-0.80000000 0.40000000 -0.55000000 0.010239
-0.05000000 -0.15000000 0.55000000 0.010241
-0.70000000 0.80000000 0.25000000 0.010241
0.35000000 0.35000000 0.65000000 0.010244
-0.75000000 -0.15000000 0.55000000 0.010245
0.30000000 0.25000000 -0.85000000 0.010247
0.10000000 -0.30000000 0.70000000 0.010249
0.25000000 -0.45000000 0.70000000 0.010250
-0.45000000 0.95000000 -0.35000000 0.010250
-0.25000000 0.25000000 0.55000000 0.010253
-0.40000000 -0.45000000 0.60000000 0.010253
-0.40000000 0.40000000 -0.80000000 0.010254
-0.60000000 0.10000000 0.60000000 0.010255
0.75000000 -0.90000000 0.15000000 0.010255
0.45000000 -0.95000000 -0.40000000 0.010255
0.20000000 0.25000000 -0.90000000 0.010255
1.00000000 0.05000000 0.30000000 0.010255
-0.20000000 0.30000000 0.55000000 0.010256
-0.60000000 -0.65000000 -0.60000000 0.010257
0.15000000 -0.95000000 0.40000000 0.010257
-0.45000000 0.00000000 0.60000000 0.010257
0.05000000 0.60000000 0.55000000 0.010257
0.85000000 0.05000000 -0.50000000 0.010259
-0.35000000 -0.25000000 0.60000000 0.010259
-0.75000000 0.60000000 0.35000000 0.010259
0.25000000 0.70000000 0.45000000 0.010263
-0.25000000 -1.00000000 -0.50000000 0.010263
-0.10000000 0.75000000 0.45000000 0.010263
-0.75000000 -0.10000000 -0.70000000 0.010264
-0.25000000 -0.50000000 0.60000000 0.010265
-0.20000000 0.75000000 0.45000000 0.010265
0.25000000 0.40000000 -0.80000000 0.010265
-0.20000000 -0.15000000 0.55000000 0.010265
0.15000000 0.50000000 0.60000000 0.010268
0.05000000 -0.60000000 0.65000000 0.010268
-0.20000000 0.85000000 -0.50000000 0.010269
0.85000000 -0.20000000 -0.50000000 0.010269
-0.20000000 -0.70000000 0.55000000 0.010270
0.45000000 -0.35000000 0.65000000 0.010270
0.80000000 0.40000000 0.35000000 0.010271
-0.40000000 -0.15000000 0.60000000 0.010272
0.05000000 -0.40000000 0.70000000 0.010272
0.75000000 0.85000000 -0.15000000 0.010272
0.30000000 -0.95000000 0.35000000 0.010274
0.25000000 0.50000000 0.60000000 0.010275
-0.50000000 -0.15000000 -0.90000000 0.010275
-0.80000000 -0.35000000 -0.60000000 0.010275
-0.25000000 0.55000000 -0.75000000 0.010275
-0.30000000 -1.00000000 0.35000000 0.010276
-0.80000000 -0.30000000 0.50000000 0.010276
-0.60000000 -0.25000000 0.60000000 0.010276
-0.40000000 0.90000000 0.30000000 0.010276
0.30000000 -0.05000000 0.70000000 0.010278
-0.20000000 0.50000000 -0.80000000 0.010278
0.30000000 0.10000000 -0.90000000 0.010278
-0.20000000 -0.40000000 0.60000000 0.010279
0.20000000 -0.20000000 -1.00000000 0.010280
-0.30000000 -0.65000000 0.55000000 0.010280
-0.35000000 0.10000000 -0.95000000 0.010281
-0.25000000 -0.40000000 0.60000000 0.010281
0.85000000 -0.15000000 0.40000000 0.010282
0.10000000 0.50000000 -0.80000000 0.010282
0.90000000 -0.20000000 0.35000000 0.010283
0.15000000 0.30000000 0.60000000 0.010284
-0.10000000 -0.35000000 0.60000000 0.010285
-0.30000000 -0.35000000 0.60000000 0.010286
0.50000000 0.00000000 -0.80000000 0.010286
0.50000000 1.00000000 0.15000000 0.010286
-0.70000000 -0.80000000 0.30000000 0.010286
0.45000000 0.40000000 0.60000000 0.010289
-0.50000000 0.45000000 0.55000000 0.010290
0.30000000 0.35000000 -0.80000000 0.010291
0.75000000 0.65000000 -0.35000000 0.010291
-0.10000000 0.45000000 -0.85000000 0.010291
-0.20000000 -0.55000000 0.60000000 0.010292
-0.55000000 0.40000000 0.55000000 0.010292
0.10000000 0.40000000 0.60000000 0.010293
0.65000000 0.60000000 -0.45000000 0.010293
-0.50000000 0.20000000 0.60000000 0.010294
-0.25000000 0.20000000 -0.95000000 0.010295
0.10000000 -0.55000000 -0.80000000 0.010297
-0.25000000 -0.90000000 -0.55000000 0.010299
0.00000000 -0.35000000 0.65000000 0.010299
-0.30000000 0.10000000 0.55000000 0.010300
0.35000000 -0.35000000 0.70000000 0.010303
-0.85000000 0.25000000 0.45000000 0.010305
-0.35000000 -0.45000000 0.60000000 0.010306
-0.25000000 0.40000000 -0.85000000 0.010306
-0.70000000 1.00000000 -0.05000000 0.010306
0.05000000 -0.05000000 0.55000000 0.010309
-0.30000000 -0.45000000 0.60000000 0.010311
0.10000000 0.20000000 0.55000000 0.010311
0.10000000 -0.15000000 0.60000000 0.010312
0.15000000 -0.25000000 0.70000000 0.010313
0.00000000 -1.00000000 0.40000000 0.010313
0.50000000 -0.90000000 0.30000000 0.010313
-0.15000000 0.35000000 -0.90000000 0.010313
0.05000000 0.75000000 -0.60000000 0.010317
-0.65000000 0.95000000 0.15000000 0.010317
0.15000000 -0.75000000 0.55000000 0.010317
0.25000000 -0.55000000 -0.75000000 0.010317
0.00000000 0.70000000 -0.65000000 0.010318
-0.40000000 -0.80000000 0.45000000 0.010318
0.25000000 0.00000000 -0.95000000 0.010320
0.20000000 0.50000000 0.60000000 0.010320
0.20000000 0.65000000 -0.65000000 0.010321
-0.15000000 -0.60000000 0.60000000 0.010321
-0.75000000 -0.45000000 -0.60000000 0.010322
0.50000000 -0.10000000 -0.80000000 0.010322
-0.65000000 -0.40000000 0.55000000 0.010322
-0.30000000 0.05000000 0.55000000 0.010323
-0.30000000 0.15000000 0.55000000 0.010323
-0.35000000 0.70000000 -0.60000000 0.010323
-0.25000000 -0.10000000 0.55000000 0.010325
0.00000000 -0.70000000 -0.70000000 0.010325
-0.25000000 -0.45000000 0.60000000 0.010325
-0.45000000 -0.05000000 0.60000000 0.010325
0.05000000 0.20000000 -1.00000000 0.010326
0.10000000 0.05000000 0.55000000 0.010326
-0.50000000 -0.05000000 -0.90000000 0.010327
-0.40000000 -0.60000000 0.55000000 0.010327
-0.10000000 -0.90000000 0.45000000 0.010330
0.70000000 0.45000000 0.40000000 0.010330
0.80000000 -0.85000000 0.15000000 0.010331
0.20000000 -0.10000000 0.65000000 0.010331
-0.05000000 0.35000000 0.55000000 0.010331
-0.15000000 0.75000000 0.45000000 0.010331
0.55000000 0.25000000 0.60000000 0.010331
0.30000000 0.35000000 0.65000000 0.010332
0.35000000 0.70000000 -0.55000000 0.010333
0.10000000 -0.60000000 0.65000000 0.010334
-0.45000000 0.10000000 -0.90000000 0.010334
0.00000000 0.45000000 -0.85000000 0.010336
0.05000000 -0.30000000 0.65000000 0.010336
-0.55000000 0.25000000 -0.80000000 0.010336
-0.10000000 0.35000000 0.55000000 0.010336
0.45000000 0.15000000 -0.80000000 0.010336
0.50000000 0.80000000 -0.40000000 0.010337
0.70000000 0.35000000 0.45000000 0.010337
-0.80000000 0.35000000 0.45000000 0.010340
-0.30000000 -0.40000000 0.60000000 0.010341
0.50000000 0.20000000 -0.75000000 0.010341
-0.05000000 -1.00000000 0.40000000 0.010342
0.25000000 -0.85000000 -0.55000000 0.010342
-0.55000000 0.15000000 0.60000000 0.010343
-0.30000000 -0.70000000 -0.70000000 0.010343
0.35000000 -0.65000000 -0.65000000 0.010343
0.60000000 0.30000000 0.55000000 0.010344
-0.75000000 0.00000000 -0.70000000 0.010345
0.05000000 0.30000000 0.55000000 0.010346
0.20000000 0.35000000 -0.85000000 0.010347
0.15000000 0.65000000 0.50000000 0.010347
-0.90000000 0.10000000 0.45000000 0.010349
0.85000000 0.60000000 -0.30000000 0.010349
0.20000000 0.10000000 0.60000000 0.010349
0.25000000 0.75000000 -0.55000000 0.010354
-0.15000000 -0.20000000 0.55000000 0.010355
0.05000000 0.35000000 -0.90000000 0.010356
-0.50000000 0.15000000 0.60000000 0.010357
0.60000000 0.65000000 0.35000000 0.010358
0.70000000 0.20000000 -0.60000000 0.010358
0.40000000 0.30000000 0.65000000 0.010358
0.25000000 0.30000000 -0.85000000 0.010359
0.40000000 -0.25000000 0.70000000 0.010359
0.65000000 0.15000000 0.55000000 0.010363
0.95000000 0.20000000 0.30000000 0.010363
-0.35000000 -0.30000000 0.60000000 0.010364
-0.25000000 0.60000000 0.55000000 0.010364
0.30000000 -0.40000000 0.70000000 0.010365
-0.40000000 0.00000000 -0.95000000 0.010365
-0.15000000 -0.40000000 0.60000000 0.010365
-0.85000000 -0.70000000 -0.40000000 0.010367
0.90000000 -0.70000000 -0.25000000 0.010367
0.25000000 0.00000000 0.65000000 0.010368
0.05000000 -0.45000000 -0.90000000 0.010369
0.10000000 0.45000000 0.60000000 0.010370
0.65000000 0.30000000 -0.60000000 0.010371
0.85000000 -0.40000000 -0.45000000 0.010372
-0.10000000 -0.20000000 0.55000000 0.010372
-0.75000000 -0.05000000 -0.70000000 0.010373
0.20000000 -0.20000000 0.70000000 0.010373
0.40000000 -0.70000000 0.50000000 0.010373
0.40000000 -0.05000000 0.70000000 0.010373
0.20000000 0.15000000 0.60000000 0.010374
-0.60000000 0.05000000 0.60000000 0.010374
-0.40000000 0.30000000 -0.85000000 0.010375
-0.25000000 0.30000000 -0.90000000 0.010376
0.10000000 -0.75000000 -0.65000000 0.010376
0.15000000 0.95000000 0.30000000 0.010377
0.35000000 0.55000000 -0.65000000 0.010377
-0.40000000 -0.20000000 0.60000000 0.010378
0.00000000 0.60000000 0.55000000 0.010380
0.10000000 -0.25000000 0.65000000 0.010380
0.25000000 -0.70000000 -0.65000000 0.010380
-0.10000000 0.70000000 -0.65000000 0.010382
0.50000000 -0.05000000 -0.80000000 0.010383
-0.65000000 0.20000000 -0.75000000 0.010383
0.05000000 -0.35000000 -1.00000000 0.010384
-0.45000000 0.25000000 -0.85000000 0.010384
-0.75000000 0.00000000 0.55000000 0.010385
-0.30000000 0.00000000 0.55000000 0.010387
-0.50000000 0.10000000 0.60000000 0.010387
0.45000000 0.55000000 -0.60000000 0.010388
-0.60000000 0.75000000 -0.45000000 0.010388
0.60000000 0.65000000 -0.45000000 0.010388
-0.70000000 -0.30000000 -0.70000000 0.010388
0.20000000 -0.45000000 -0.85000000 0.010389
0.50000000 0.10000000 0.65000000 0.010390
0.40000000 -0.70000000 -0.60000000 0.010391
-0.20000000 -0.45000000 0.60000000 0.010391
-0.30000000 0.15000000 -0.95000000 0.010392
0.70000000 -0.05000000 -0.65000000 0.010394
-0.05000000 -0.45000000 0.65000000 0.010394
-0.30000000 0.20000000 0.55000000 0.010394
-0.45000000 0.95000000 0.25000000 0.010397
-0.75000000 0.95000000 -0.10000000 0.010397
0.25000000 0.55000000 -0.70000000 0.010398
-0.50000000 -0.10000000 -0.90000000 0.010398
0.35000000 -0.65000000 0.55000000 0.010401
0.60000000 -0.75000000 0.35000000 0.010402
-0.05000000 -0.75000000 0.55000000 0.010403
-0.75000000 -0.10000000 0.55000000 0.010404
-0.95000000 0.30000000 0.35000000 0.010404
-0.65000000 0.50000000 -0.60000000 0.010405
-0.80000000 0.05000000 -0.65000000 0.010405
0.50000000 -0.50000000 0.55000000 0.010407
-0.55000000 -0.50000000 0.55000000 0.010407
0.55000000 1.00000000 0.10000000 0.010407
-0.45000000 -0.10000000 0.60000000 0.010409
0.20000000 0.05000000 0.60000000 0.010409
0.20000000 0.00000000 -1.00000000 0.010409
-0.45000000 -0.40000000 0.60000000 0.010411
-0.85000000 0.30000000 -0.55000000 0.010412
-0.20000000 -0.50000000 0.60000000 0.010412
0.70000000 -0.10000000 -0.65000000 0.010412
0.60000000 -0.90000000 -0.35000000 0.010413
0.40000000 -0.20000000 -0.85000000 0.010414
0.55000000 -0.55000000 0.50000000 0.010415
-0.50000000 0.05000000 0.60000000 0.010416
-0.15000000 -0.60000000 -0.80000000 0.010417
-0.05000000 -0.50000000 0.65000000 0.010417
-0.35000000 -0.40000000 0.60000000 0.010417
0.30000000 -0.25000000 -0.90000000 0.010417
0.65000000 -1.00000000 0.15000000 0.010417
-0.05000000 0.45000000 -0.85000000 0.010417
-0.15000000 0.35000000 0.55000000 0.010418
1.00000000 0.55000000 0.10000000 0.010420
1.00000000 0.50000000 0.15000000 0.010420
-0.65000000 0.90000000 0.20000000 0.010420
-0.35000000 -0.95000000 0.35000000 0.010421
0.85000000 0.05000000 0.40000000 0.010423
-0.65000000 -0.95000000 -0.35000000 0.010423
0.10000000 -0.45000000 0.70000000 0.010424
0.55000000 -0.25000000 0.60000000 0.010425
-0.60000000 -0.20000000 0.60000000 0.010425
0.80000000 -0.35000000 0.40000000 0.010425
-0.35000000 -0.35000000 0.60000000 0.010426
0.50000000 0.65000000 0.40000000 0.010426
-0.15000000 0.25000000 -0.95000000 0.010427
-0.75000000 0.55000000 -0.50000000 0.010428
0.50000000 0.50000000 -0.60000000 0.010429
-0.50000000 0.55000000 -0.65000000 0.010429
-0.20000000 -0.60000000 -0.80000000 0.010430
-0.90000000 -0.20000000 0.45000000 0.010430
0.00000000 0.35000000 0.55000000 0.010431
0.65000000 -0.70000000 0.35000000 0.010431
0.50000000 -0.70000000 0.45000000 0.010432
0.45000000 0.70000000 -0.50000000 0.010432
-0.45000000 0.65000000 -0.60000000 0.010432
0.50000000 -0.20000000 0.65000000 0.010433
-0.10000000 -0.65000000 -0.75000000 0.010433
0.25000000 -0.15000000 -0.95000000 0.010433
-0.55000000 0.10000000 0.60000000 0.010434
-0.05000000 0.70000000 -0.65000000 0.010435
0.35000000 -0.05000000 0.70000000 0.010438
-0.60000000 0.15000000 -0.80000000 0.010438
0.25000000 -0.15000000 0.70000000 0.010439
0.10000000 -0.35000000 0.70000000 0.010439
0.60000000 0.90000000 -0.25000000 0.010440
-0.75000000 -0.65000000 -0.50000000 0.010440
0.65000000 -0.10000000 0.55000000 0.010441
0.65000000 0.75000000 -0.35000000 0.010443
-0.80000000 -0.10000000 -0.65000000 0.010445
-0.35000000 0.50000000 -0.75000000 0.010446
0.55000000 -0.20000000 -0.75000000 0.010448
0.30000000 -0.45000000 -0.80000000 0.010449
0.75000000 0.00000000 -0.60000000 0.010449
0.25000000 -0.55000000 0.65000000 0.010451
-0.85000000 0.10000000 -0.60000000 0.010451
0.25000000 -0.05000000 -0.95000000 0.010453
-0.55000000 0.90000000 -0.35000000 0.010454
-0.75000000 -0.05000000 0.55000000 0.010454
-0.20000000 -0.20000000 0.55000000 0.010455
-0.60000000 0.00000000 0.60000000 0.010456
-0.15000000 0.75000000 -0.60000000 0.010456
0.85000000 0.40000000 -0.40000000 0.010457
0.40000000 0.05000000 -0.85000000 0.010457
-0.25000000 0.30000000 0.55000000 0.010457
-0.80000000 -0.55000000 0.40000000 0.010458
-0.50000000 0.40000000 -0.75000000 0.010458
0.15000000 -0.20000000 0.65000000 0.010458
0.30000000 0.75000000 0.40000000 0.010459
-0.55000000 -0.30000000 0.60000000 0.010460
-0.75000000 0.70000000 -0.40000000 0.010461
-0.40000000 -0.40000000 0.60000000 0.010461
-0.50000000 0.00000000 0.60000000 0.010461
-0.70000000 -0.30000000 0.55000000 0.010461
-0.65000000 -0.40000000 -0.70000000 0.010462
0.15000000 0.10000000 -1.00000000 0.010462
0.75000000 -0.95000000 -0.15000000 0.010462
0.75000000 -0.15000000 -0.60000000 0.010465
1.00000000 0.30000000 0.25000000 0.010465
-0.90000000 0.15000000 -0.55000000 0.010466
-0.50000000 1.00000000 0.20000000 0.010468
0.10000000 0.90000000 -0.45000000 0.010469
0.20000000 -0.45000000 0.70000000 0.010469
0.60000000 -0.40000000 -0.65000000 0.010469
-0.60000000 -0.45000000 0.55000000 0.010470
0.45000000 0.55000000 0.50000000 0.010470
0.05000000 0.80000000 -0.55000000 0.010470
-0.35000000 0.65000000 0.50000000 0.010471
-0.25000000 -0.65000000 -0.75000000 0.010471
-0.40000000 -0.25000000 0.60000000 0.010473
0.75000000 0.35000000 -0.50000000 0.010473
-0.25000000 -0.15000000 0.55000000 0.010474
0.50000000 0.40000000 -0.65000000 0.010474
0.70000000 0.20000000 0.50000000 0.010475
0.60000000 -0.30000000 0.55000000 0.010477
0.65000000 0.60000000 0.35000000 0.010478
0.20000000 0.20000000 0.60000000 0.010478
-0.70000000 0.35000000 -0.65000000 0.010479
-0.30000000 -0.05000000 0.55000000 0.010482
-0.05000000 0.60000000 0.55000000 0.010486
-0.10000000 0.20000000 -1.00000000 0.010486
0.30000000 -0.10000000 0.70000000 0.010486
-0.65000000 -0.50000000 -0.65000000 0.010488
0.15000000 -0.10000000 0.60000000 0.010488
-0.50000000 -0.35000000 0.60000000 0.010491
-0.35000000 -0.20000000 -1.00000000 0.010491
-0.45000000 -0.15000000 0.60000000 0.010495
0.25000000 -0.10000000 -0.95000000 0.010497
-0.55000000 0.05000000 0.60000000 0.010499
0.15000000 0.35000000 0.60000000 0.010499
0.25000000 -0.85000000 0.45000000 0.010499
-0.60000000 -0.15000000 0.60000000 0.010500
0.10000000 0.25000000 0.55000000 0.010501
0.40000000 -0.35000000 -0.80000000 0.010503
0.00000000 -0.15000000 0.55000000 0.010503
0.55000000 -0.65000000 0.45000000 0.010504
0.40000000 -0.10000000 0.70000000 0.010504
-0.75000000 -0.40000000 0.50000000 0.010505
-0.60000000 -0.05000000 0.60000000 0.010506
0.05000000 0.25000000 -0.95000000 0.010507
0.10000000 -0.60000000 -0.75000000 0.010508
0.70000000 -0.55000000 0.40000000 0.010508
-0.40000000 0.85000000 -0.45000000 0.010508
-0.30000000 0.45000000 -0.80000000 0.010511
-0.30000000 0.25000000 0.55000000 0.010513
0.15000000 -0.45000000 0.70000000 0.010514
0.40000000 -0.20000000 0.70000000 0.010515
0.10000000 0.00000000 0.55000000 0.010515
0.10000000 -0.40000000 0.70000000 0.010517
-0.85000000 -0.15000000 -0.60000000 0.010517
0.30000000 0.30000000 0.65000000 0.010517
0.30000000 -0.60000000 0.60000000 0.010519
-0.70000000 0.60000000 -0.50000000 0.010520
-0.50000000 -0.05000000 0.60000000 0.010521
-0.60000000 -0.10000000 0.60000000 0.010523
0.50000000 0.30000000 -0.70000000 0.010523
-0.55000000 0.35000000 -0.75000000 0.010524
0.40000000 -1.00000000 -0.40000000 0.010524
-0.85000000 -0.35000000 0.45000000 0.010525
0.20000000 -0.15000000 -1.00000000 0.010525
-0.05000000 -0.20000000 0.55000000 0.010525
0.00000000 -0.30000000 0.60000000 0.010529
0.20000000 0.10000000 -0.95000000 0.010529
0.70000000 0.85000000 0.15000000 0.010531
0.15000000 -0.30000000 0.70000000 0.010533
-0.20000000 0.60000000 0.55000000 0.010535
-0.35000000 -0.30000000 -0.95000000 0.010535
0.10000000 0.15000000 -1.00000000 0.010535
-0.40000000 -0.30000000 0.60000000 0.010537
0.30000000 0.15000000 0.65000000 0.010537
-0.15000000 -0.45000000 0.60000000 0.010539
0.45000000 0.20000000 0.65000000 0.010539
0.35000000 -0.80000000 -0.55000000 0.010540
-0.05000000 -0.35000000 0.60000000 0.010540
0.90000000 0.10000000 0.35000000 0.010541
0.05000000 -0.90000000 0.45000000 0.010541
-0.45000000 -0.40000000 -0.85000000 0.010542
0.20000000 0.00000000 0.60000000 0.010543
-0.40000000 -0.35000000 0.60000000 0.010543
-0.80000000 0.00000000 -0.65000000 0.010545
0.40000000 0.50000000 -0.65000000 0.010547
-0.30000000 -0.35000000 -0.95000000 0.010547
0.30000000 0.20000000 0.65000000 0.010547
0.00000000 0.20000000 -1.00000000 0.010548
-0.65000000 -0.75000000 -0.50000000 0.010548
-0.35000000 -0.05000000 -1.00000000 0.010550
-0.05000000 -0.65000000 0.60000000 0.010550
-0.40000000 -0.45000000 -0.85000000 0.010551
-0.20000000 0.35000000 0.55000000 0.010551
0.05000000 -0.25000000 0.60000000 0.010552
0.25000000 -0.05000000 0.65000000 0.010552
-0.20000000 0.15000000 -1.00000000 0.010553
-0.55000000 0.00000000 0.60000000 0.010555
-1.00000000 0.30000000 -0.45000000 0.010556
0.10000000 0.65000000 0.50000000 0.010556
0.40000000 -0.15000000 0.70000000 0.010557
-0.10000000 -0.40000000 0.60000000 0.010557
-0.80000000 -0.05000000 -0.65000000 0.010558
-0.35000000 0.55000000 0.55000000 0.010558
0.20000000 -0.05000000 -1.00000000 0.010560
0.15000000 -0.40000000 -0.90000000 0.010561
0.30000000 0.25000000 0.65000000 0.010561
0.45000000 -0.45000000 0.60000000 0.010562
0.00000000 -0.55000000 0.65000000 0.010563
-0.10000000 0.60000000 0.55000000 0.010563
0.80000000 0.00000000 -0.55000000 0.010564
0.00000000 -0.40000000 0.65000000 0.010567
0.05000000 -0.50000000 -0.85000000 0.010567
0.35000000 0.60000000 0.50000000 0.010567
-0.45000000 0.35000000 -0.80000000 0.010569
0.30000000 0.10000000 0.65000000 0.010569
0.50000000 0.05000000 0.65000000 0.010570
0.80000000 -0.15000000 -0.55000000 0.010571
0.00000000 -0.40000000 -0.95000000 0.010571
-0.80000000 0.65000000 -0.40000000 0.010572
0.05000000 0.80000000 0.40000000 0.010574
-0.45000000 -0.20000000 0.60000000 0.010575
0.60000000 0.40000000 0.50000000 0.010576
0.85000000 0.70000000 0.15000000 0.010576
-0.50000000 -0.65000000 0.50000000 0.010579
0.30000000 -0.75000000 -0.60000000 0.010581
-0.15000000 -0.55000000 0.60000000 0.010582
0.45000000 0.45000000 -0.65000000 0.010582
-0.45000000 0.60000000 0.50000000 0.010583
0.05000000 -0.10000000 0.55000000 0.010584
-0.45000000 -0.35000000 0.60000000 0.010585
0.20000000 -0.15000000 0.65000000 0.010585
-0.50000000 -0.10000000 0.60000000 0.010586
-0.40000000 -0.20000000 -0.95000000 0.010586
-0.05000000 -0.70000000 -0.70000000 0.010587
-0.75000000 0.25000000 -0.65000000 0.010587
-0.30000000 0.05000000 -1.00000000 0.010587
0.35000000 0.30000000 0.65000000 0.010588
-0.30000000 -0.75000000 0.50000000 0.010589
0.50000000 -0.70000000 -0.55000000 0.010589
-0.95000000 -0.30000000 -0.50000000 0.010590
-0.15000000 0.60000000 0.55000000 0.010590
0.30000000 0.05000000 -0.90000000 0.010592
0.20000000 -0.65000000 0.60000000 0.010592
-0.15000000 -0.25000000 0.55000000 0.010592
-0.35000000 -0.80000000 -0.60000000 0.010593
0.95000000 -0.25000000 -0.40000000 0.010593
0.20000000 -0.25000000 0.70000000 0.010594
0.65000000 -0.30000000 -0.65000000 0.010595
-0.05000000 0.20000000 -1.00000000 0.010596
-0.40000000 -0.35000000 -0.90000000 0.010599
-0.65000000 0.25000000 0.55000000 0.010599
-0.30000000 -0.10000000 0.55000000 0.010599
0.15000000 0.45000000 0.60000000 0.010600
0.35000000 -0.30000000 0.70000000 0.010602
-0.35000000 -0.40000000 -0.90000000 0.010604
-0.55000000 -0.25000000 0.60000000 0.010605
0.55000000 -0.35000000 -0.70000000 0.010605
0.20000000 -0.10000000 -1.00000000 0.010605
-0.55000000 -0.05000000 0.60000000 0.010608
-0.50000000 0.30000000 -0.80000000 0.010609
-0.85000000 -0.50000000 -0.50000000 0.010610
0.15000000 0.60000000 -0.70000000 0.010610
-0.10000000 0.35000000 -0.90000000 0.010610
0.35000000 0.15000000 -0.85000000 0.010611
0.35000000 -0.10000000 0.70000000 0.010612
-0.80000000 -0.45000000 0.45000000 0.010613
-0.20000000 -0.40000000 -0.95000000 0.010613
-0.80000000 -0.70000000 0.30000000 0.010615
-0.15000000 0.80000000 -0.55000000 0.010616
-0.40000000 0.70000000 0.45000000 0.010616
0.20000000 -0.80000000 0.50000000 0.010616
0.30000000 0.55000000 0.55000000 0.010617
-0.15000000 -0.65000000 -0.75000000 0.010617
0.00000000 0.75000000 -0.60000000 0.010618
0.15000000 -0.25000000 -1.00000000 0.010619
0.90000000 -0.75000000 -0.20000000 0.010620
-0.35000000 0.10000000 0.55000000 0.010623
0.20000000 -0.50000000 -0.80000000 0.010624
0.65000000 -0.05000000 0.55000000 0.010624
0.90000000 -0.20000000 -0.45000000 0.010625
0.05000000 0.85000000 -0.50000000 0.010625
0.65000000 0.10000000 0.55000000 0.010625
0.35000000 -0.40000000 -0.80000000 0.010626
0.90000000 0.65000000 -0.20000000 0.010627
-0.15000000 -0.50000000 0.60000000 0.010628
0.10000000 -0.20000000 0.60000000 0.010628
-0.75000000 -0.55000000 -0.55000000 0.010629
-0.55000000 0.65000000 -0.55000000 0.010629
0.35000000 -0.30000000 -0.85000000 0.010630
-0.05000000 -0.90000000 0.45000000 0.010630
0.80000000 0.25000000 0.40000000 0.010630
-0.20000000 -0.35000000 -1.00000000 0.010630
0.40000000 -0.40000000 0.65000000 0.010631
0.50000000 -0.15000000 0.65000000 0.010632
-0.45000000 -0.25000000 0.60000000 0.010633
-0.60000000 -0.25000000 -0.80000000 0.010633
1.00000000 -0.10000000 0.30000000 0.010633
0.45000000 -0.25000000 -0.80000000 0.010634
-0.70000000 0.15000000 0.55000000 0.010635
0.75000000 -0.30000000 0.45000000 0.010636
-1.00000000 -0.40000000 -0.45000000 0.010636
0.85000000 -0.10000000 0.40000000 0.010637
0.15000000 0.40000000 0.60000000 0.010637
0.15000000 0.95000000 -0.40000000 0.010637
-0.25000000 -0.20000000 0.55000000 0.010638
0.60000000 -0.25000000 -0.70000000 0.010639
0.25000000 -0.20000000 0.70000000 0.010641
-0.35000000 0.15000000 0.55000000 0.010641
0.20000000 0.25000000 0.60000000 0.010641
-0.30000000 -0.90000000 0.40000000 0.010642
-0.25000000 -0.65000000 0.55000000 0.010642
-0.50000000 -0.30000000 0.60000000 0.010642
0.15000000 -0.65000000 -0.70000000 0.010643
0.40000000 -0.15000000 -0.85000000 0.010644
0.80000000 -0.90000000 -0.15000000 0.010644
-0.35000000 -0.60000000 0.55000000 0.010644
-0.35000000 0.05000000 0.55000000 0.010645
0.00000000 0.35000000 -0.90000000 0.010645
-0.50000000 -0.15000000 0.60000000 0.010646
-0.10000000 -0.25000000 0.55000000 0.010646
-0.45000000 -0.30000000 0.60000000 0.010647
0.30000000 0.50000000 -0.70000000 0.010647
0.75000000 -0.05000000 -0.60000000 0.010648
-0.30000000 0.65000000 -0.65000000 0.010649
0.05000000 -0.55000000 -0.80000000 0.010649
0.10000000 -0.75000000 0.55000000 0.010650
0.50000000 -0.30000000 -0.75000000 0.010650
-0.55000000 -0.10000000 0.60000000 0.010651
0.45000000 -0.55000000 0.55000000 0.010652
-0.95000000 -0.50000000 0.30000000 0.010653
0.35000000 -0.55000000 -0.70000000 0.010653
-0.20000000 -0.65000000 -0.75000000 0.010654
0.55000000 0.05000000 -0.75000000 0.010654
0.00000000 -0.75000000 0.55000000 0.010654
0.05000000 -0.35000000 0.65000000 0.010656
0.25000000 -0.40000000 0.70000000 0.010656
0.30000000 0.05000000 0.65000000 0.010657
0.40000000 -0.60000000 0.55000000 0.010657
-0.20000000 -0.25000000 0.55000000 0.010657
0.75000000 -0.10000000 -0.60000000 0.010658
0.60000000 0.85000000 -0.30000000 0.010659
-0.55000000 -0.45000000 -0.75000000 0.010661
0.05000000 0.35000000 0.55000000 0.010663
-0.60000000 -0.80000000 0.35000000 0.010665
-0.55000000 -0.20000000 0.60000000 0.010666
0.90000000 0.05000000 -0.45000000 0.010666
0.30000000 -0.15000000 0.70000000 0.010666
0.40000000 0.25000000 0.65000000 0.010668
-0.40000000 0.15000000 -0.90000000 0.010671
0.25000000 0.15000000 -0.90000000 0.010671
-0.30000000 0.25000000 -0.90000000 0.010672
-0.45000000 -0.55000000 0.55000000 0.010672
-0.80000000 0.45000000 0.40000000 0.010673
0.15000000 -0.35000000 0.70000000 0.010673
-0.55000000 -0.15000000 0.60000000 0.010674
0.65000000 0.15000000 -0.65000000 0.010676
0.75000000 -0.35000000 -0.55000000 0.010676
-0.95000000 0.35000000 -0.45000000 0.010676
0.30000000 0.90000000 -0.40000000 0.010678
0.10000000 -0.30000000 -1.00000000 0.010679
-0.25000000 0.10000000 -1.00000000 0.010679
0.40000000 0.00000000 -0.85000000 0.010680
-0.30000000 0.30000000 0.55000000 0.010681
-0.40000000 -0.05000000 -0.95000000 0.010682
0.15000000 -0.40000000 0.70000000 0.010686
0.45000000 -0.65000000 0.50000000 0.010688
-0.50000000 -0.20000000 0.60000000 0.010688
-0.40000000 -0.65000000 -0.70000000 0.010690
-0.55000000 0.05000000 -0.85000000 0.010691
-0.05000000 0.40000000 0.55000000 0.010692
0.50000000 -0.60000000 0.50000000 0.010693
0.20000000 -0.25000000 -0.95000000 0.010693
0.20000000 0.70000000 0.45000000 0.010693
0.50000000 0.00000000 0.65000000 0.010694
0.85000000 0.25000000 -0.45000000 0.010694
0.30000000 -0.35000000 0.70000000 0.010694
-0.35000000 0.20000000 0.55000000 0.010696
-0.50000000 -0.25000000 0.60000000 0.010696
-0.10000000 0.75000000 -0.60000000 0.010696
0.35000000 -0.80000000 0.45000000 0.010698
-0.80000000 0.15000000 0.50000000 0.010700
-0.10000000 0.40000000 0.55000000 0.010700
-0.95000000 -0.45000000 -0.45000000 0.010701
0.60000000 -0.60000000 -0.55000000 0.010701
-0.10000000 0.25000000 -0.95000000 0.010701
-0.35000000 0.00000000 0.55000000 0.010703
0.70000000 0.70000000 -0.35000000 0.010703
0.00000000 -0.90000000 0.45000000 0.010705
-0.10000000 -0.60000000 0.60000000 0.010706
0.10000000 -0.30000000 0.65000000 0.010709
0.45000000 -0.30000000 0.65000000 0.010710
0.60000000 0.25000000 -0.65000000 0.010712
-0.45000000 -0.75000000 -0.60000000 0.010713
0.85000000 0.00000000 0.40000000 0.010713
0.85000000 0.00000000 -0.50000000 0.010713
-0.75000000 -0.75000000 0.30000000 0.010714
0.50000000 -0.35000000 0.60000000 0.010715
-0.25000000 0.35000000 0.55000000 0.010716
0.35000000 0.45000000 0.60000000 0.010716
-0.25000000 0.80000000 0.40000000 0.010718
0.45000000 0.35000000 -0.70000000 0.010719
0.55000000 -0.40000000 0.55000000 0.010720
0.10000000 -0.35000000 -0.95000000 0.010720
-1.00000000 0.05000000 0.40000000 0.010721
0.70000000 -0.20000000 0.50000000 0.010722
-0.15000000 -0.70000000 0.55000000 0.010722
-0.55000000 -0.20000000 -0.85000000 0.010723
-0.20000000 0.90000000 -0.45000000 0.010723
-0.40000000 -0.70000000 0.50000000 0.010725
-0.75000000 -0.30000000 -0.65000000 0.010725
-0.15000000 0.50000000 -0.80000000 0.010725
-0.05000000 0.35000000 -0.90000000 0.010727
0.65000000 0.00000000 0.55000000 0.010727
0.25000000 -0.70000000 0.55000000 0.010727
-0.30000000 -0.15000000 0.55000000 0.010731
-0.70000000 0.95000000 0.10000000 0.010731
0.20000000 -0.05000000 0.60000000 0.010732
-0.90000000 -0.40000000 -0.50000000 0.010732
-0.70000000 0.35000000 0.50000000 0.010732
0.30000000 -0.50000000 0.65000000 0.010732
-0.35000000 -0.15000000 -1.00000000 0.010733
0.20000000 0.85000000 0.35000000 0.010733
0.10000000 -1.00000000 -0.50000000 0.010733
-0.35000000 -0.10000000 -1.00000000 0.010734
0.35000000 -0.15000000 0.70000000 0.010734
0.50000000 -0.10000000 0.65000000 0.010735
0.65000000 0.05000000 0.55000000 0.010735
-0.70000000 -0.70000000 -0.50000000 0.010736
0.45000000 -0.80000000 0.40000000 0.010737
0.30000000 -0.20000000 -0.90000000 0.010737
0.85000000 -0.15000000 -0.50000000 0.010738
0.35000000 0.45000000 -0.70000000 0.010739
0.00000000 -0.45000000 0.65000000 0.010739
-0.95000000 0.55000000 -0.35000000 0.010742
0.05000000 -0.75000000 -0.65000000 0.010743
0.70000000 0.80000000 0.20000000 0.010743
0.45000000 0.15000000 0.65000000 0.010744
0.05000000 0.65000000 0.50000000 0.010744
0.20000000 -0.40000000 0.70000000 0.010746
0.00000000 -0.45000000 -0.90000000 0.010747
-0.05000000 0.75000000 -0.60000000 0.010747
-0.35000000 -0.55000000 -0.80000000 0.010748
0.35000000 0.25000000 0.65000000 0.010748
-0.40000000 0.50000000 0.55000000 0.010751
0.05000000 -0.75000000 0.55000000 0.010751
0.35000000 -0.25000000 0.70000000 0.010753
0.55000000 -0.20000000 0.60000000 0.010753
0.00000000 0.25000000 -0.95000000 0.010753
0.50000000 -0.05000000 0.65000000 0.010753
1.00000000 0.45000000 -0.25000000 0.010754
-0.85000000 0.05000000 -0.60000000 0.010755
0.65000000 0.40000000 -0.55000000 0.010755
0.05000000 -0.90000000 -0.55000000 0.010755
0.20000000 -0.30000000 0.70000000 0.010755
0.45000000 0.25000000 -0.75000000 0.010755
