//X Y Z Consensus 
-0.35000000 0.65000000 -0.55000000 0.005735
-0.40000000 -0.05000000 -0.60000000 0.005735
-0.40000000 -0.05000000 -0.65000000 0.005735
-0.40000000 0.05000000 -0.60000000 0.005735
-0.40000000 0.20000000 -0.80000000 0.005735
-0.40000000 0.25000000 -0.85000000 0.005735
-0.40000000 0.30000000 0.70000000 0.005735
-0.40000000 0.40000000 -0.65000000 0.005735
-0.40000000 0.45000000 -0.75000000 0.005735
-0.40000000 0.85000000 -0.35000000 0.005735
-0.45000000 -0.10000000 0.80000000 0.005735
-0.45000000 -0.15000000 -0.70000000 0.005735
-0.45000000 -0.25000000 -0.60000000 0.005735
-0.45000000 -0.25000000 -0.85000000 0.005735
-0.45000000 -0.45000000 -0.65000000 0.005735
-0.45000000 -0.85000000 -0.30000000 0.005735
-0.45000000 0.05000000 0.50000000 0.005735
-0.45000000 0.15000000 -0.60000000 0.005735
-0.45000000 0.30000000 0.50000000 0.005735
-0.45000000 0.35000000 -0.55000000 0.005735
-0.45000000 0.50000000 -0.70000000 0.005735
-0.45000000 0.55000000 0.50000000 0.005735
-0.45000000 0.55000000 0.55000000 0.005735
-0.50000000 -0.05000000 0.50000000 0.005735
-0.50000000 -0.05000000 0.55000000 0.005735
-0.50000000 -0.35000000 -0.65000000 0.005735
-0.50000000 -0.40000000 -0.70000000 0.005735
-0.50000000 -0.45000000 -0.65000000 0.005735
-0.50000000 -0.60000000 -0.60000000 0.005735
-0.50000000 0.00000000 -0.65000000 0.005735
-0.50000000 0.00000000 -0.85000000 0.005735
-0.50000000 0.00000000 0.45000000 0.005735
-0.50000000 0.00000000 0.50000000 0.005735
-0.50000000 0.25000000 0.55000000 0.005735
-0.50000000 0.30000000 -0.75000000 0.005735
-0.50000000 0.40000000 -0.70000000 0.005735
-0.55000000 -0.05000000 -0.55000000 0.005735
-0.55000000 -0.10000000 0.50000000 0.005735
-0.55000000 -0.20000000 -0.65000000 0.005735
-0.55000000 -0.20000000 -0.80000000 0.005735
-0.55000000 -0.25000000 0.60000000 0.005735
-0.55000000 0.10000000 0.50000000 0.005735
-0.55000000 0.15000000 0.70000000 0.005735
-0.55000000 0.25000000 0.50000000 0.005735
-0.55000000 0.40000000 -0.65000000 0.005735
-0.60000000 -0.05000000 0.50000000 0.005735
-0.60000000 -0.15000000 -0.50000000 0.005735
-0.60000000 -0.15000000 -0.65000000 0.005735
-0.60000000 -0.15000000 -0.75000000 0.005735
-0.60000000 -0.45000000 0.60000000 0.005735
-0.60000000 -0.60000000 -0.50000000 0.005735
-0.60000000 0.00000000 0.55000000 0.005735
-0.60000000 0.10000000 -0.75000000 0.005735
-0.60000000 0.40000000 -0.55000000 0.005735
-0.60000000 0.55000000 -0.55000000 0.005735
-0.65000000 -0.20000000 0.60000000 0.005735
-0.65000000 -0.35000000 -0.55000000 0.005735
-0.65000000 -0.45000000 0.55000000 0.005735
-0.65000000 0.00000000 -0.65000000 0.005735
-0.65000000 0.30000000 -0.65000000 0.005735
-0.65000000 0.30000000 0.50000000 0.005735
-0.65000000 0.45000000 -0.60000000 0.005735
-0.70000000 -0.05000000 0.65000000 0.005735
-0.70000000 -0.25000000 -0.60000000 0.005735
-0.70000000 0.00000000 0.50000000 0.005735
-0.70000000 0.05000000 -0.60000000 0.005735
-0.70000000 0.40000000 0.50000000 0.005735
-0.75000000 -0.05000000 0.60000000 0.005735
-0.75000000 -0.25000000 -0.55000000 0.005735
-0.75000000 -0.30000000 0.55000000 0.005735
-0.75000000 0.20000000 0.50000000 0.005735
-0.80000000 -0.15000000 0.55000000 0.005735
-0.80000000 -0.45000000 0.40000000 0.005735
-0.80000000 0.05000000 0.50000000 0.005735
-0.80000000 0.15000000 -0.50000000 0.005735
-0.80000000 0.25000000 0.50000000 0.005735
-0.85000000 -0.25000000 0.45000000 0.005735
-0.95000000 -0.05000000 0.30000000 0.005735
0.00000000 -0.15000000 -0.65000000 0.005735
0.00000000 -0.30000000 -0.75000000 0.005735
0.00000000 -0.35000000 -0.55000000 0.005735
0.00000000 -0.35000000 -0.70000000 0.005735
0.00000000 -0.35000000 0.45000000 0.005735
0.00000000 -0.40000000 -0.70000000 0.005735
0.00000000 -0.50000000 -0.65000000 0.005735
0.00000000 -0.50000000 -0.80000000 0.005735
0.00000000 -0.80000000 -0.55000000 0.005735
0.00000000 -0.85000000 -0.50000000 0.005735
0.00000000 0.00000000 0.45000000 0.005735
0.00000000 0.15000000 -0.80000000 0.005735
0.00000000 0.20000000 0.45000000 0.005735
0.00000000 0.35000000 0.45000000 0.005735
0.00000000 0.55000000 -0.60000000 0.005735
0.05000000 -0.20000000 -0.55000000 0.005735
0.05000000 -0.25000000 -0.55000000 0.005735
0.05000000 -0.65000000 -0.70000000 0.005735
0.05000000 -0.70000000 0.65000000 0.005735
0.05000000 0.00000000 -0.65000000 0.005735
0.05000000 0.10000000 -0.50000000 0.005735
0.05000000 0.20000000 -0.90000000 0.005735
0.05000000 0.60000000 0.45000000 0.005735
0.05000000 0.60000000 0.60000000 0.005735
0.05000000 0.65000000 0.45000000 0.005735
0.05000000 0.80000000 0.40000000 0.005735
0.10000000 -0.10000000 -0.55000000 0.005735
0.10000000 -0.15000000 -0.90000000 0.005735
0.10000000 -0.15000000 0.45000000 0.005735
0.10000000 -0.25000000 -0.65000000 0.005735
0.10000000 -0.30000000 -0.75000000 0.005735
0.10000000 -0.30000000 -0.85000000 0.005735
0.10000000 -0.40000000 0.55000000 0.005735
0.10000000 -0.40000000 0.85000000 0.005735
0.10000000 -0.50000000 0.60000000 0.005735
0.10000000 -0.70000000 -0.50000000 0.005735
0.10000000 -0.70000000 0.55000000 0.005735
0.10000000 -0.75000000 -0.50000000 0.005735
0.10000000 -0.75000000 0.60000000 0.005735
0.10000000 -1.00000000 0.15000000 0.005735
0.10000000 0.10000000 -0.80000000 0.005735
0.10000000 0.15000000 -0.55000000 0.005735
0.10000000 0.20000000 -0.80000000 0.005735
0.10000000 0.60000000 -0.65000000 0.005735
0.10000000 0.65000000 -0.60000000 0.005735
0.15000000 -0.05000000 -0.70000000 0.005735
0.15000000 -0.15000000 -0.60000000 0.005735
0.15000000 -0.15000000 -0.65000000 0.005735
0.15000000 -0.20000000 -0.90000000 0.005735
0.15000000 -0.30000000 -0.50000000 0.005735
0.15000000 -0.45000000 0.70000000 0.005735
0.15000000 -0.50000000 -0.75000000 0.005735
0.15000000 -0.60000000 -0.70000000 0.005735
0.15000000 -0.60000000 -0.75000000 0.005735
0.15000000 -0.70000000 -0.55000000 0.005735
0.15000000 0.05000000 -0.70000000 0.005735
0.15000000 0.10000000 -0.65000000 0.005735
0.15000000 0.30000000 -0.55000000 0.005735
0.15000000 0.35000000 -0.75000000 0.005735
0.15000000 0.35000000 -0.85000000 0.005735
0.20000000 -0.10000000 -0.75000000 0.005735
0.20000000 -0.10000000 -0.90000000 0.005735
0.20000000 -0.15000000 -0.65000000 0.005735
0.20000000 -0.30000000 0.50000000 0.005735
0.20000000 -0.30000000 0.60000000 0.005735
0.20000000 -0.35000000 -0.70000000 0.005735
0.20000000 -0.35000000 0.60000000 0.005735
0.20000000 -0.40000000 0.65000000 0.005735
0.20000000 -0.45000000 -0.85000000 0.005735
0.20000000 -0.50000000 0.60000000 0.005735
0.20000000 0.00000000 -0.85000000 0.005735
0.20000000 0.05000000 -0.75000000 0.005735
0.20000000 0.15000000 -0.65000000 0.005735
0.20000000 0.20000000 -0.65000000 0.005735
0.20000000 0.20000000 -0.85000000 0.005735
0.20000000 0.20000000 0.45000000 0.005735
0.20000000 0.65000000 0.65000000 0.005735
0.25000000 -0.20000000 -0.60000000 0.005735
0.25000000 -0.40000000 0.85000000 0.005735
0.25000000 -0.45000000 0.60000000 0.005735
0.25000000 -0.45000000 0.70000000 0.005735
0.25000000 -0.55000000 0.60000000 0.005735
0.25000000 -0.65000000 -0.55000000 0.005735
0.25000000 -0.70000000 0.55000000 0.005735
0.25000000 0.10000000 -0.90000000 0.005735
0.25000000 0.20000000 -0.60000000 0.005735
0.25000000 0.25000000 -0.50000000 0.005735
0.25000000 0.30000000 -0.80000000 0.005735
0.25000000 0.35000000 -0.70000000 0.005735
0.25000000 0.45000000 0.50000000 0.005735
0.25000000 0.50000000 -0.75000000 0.005735
0.25000000 0.50000000 0.65000000 0.005735
0.25000000 0.60000000 0.60000000 0.005735
0.25000000 0.60000000 0.65000000 0.005735
0.25000000 0.65000000 0.60000000 0.005735
0.25000000 0.70000000 0.45000000 0.005735
0.25000000 0.70000000 0.55000000 0.005735
0.30000000 -0.05000000 -0.70000000 0.005735
0.30000000 -0.05000000 -0.75000000 0.005735
0.30000000 -0.10000000 0.50000000 0.005735
0.30000000 -0.10000000 0.55000000 0.005735
0.30000000 -0.15000000 -0.55000000 0.005735
0.30000000 -0.15000000 0.90000000 0.005735
0.30000000 -0.25000000 0.55000000 0.005735
0.30000000 -0.30000000 -0.65000000 0.005735
0.30000000 -0.30000000 -0.80000000 0.005735
0.30000000 -0.35000000 0.85000000 0.005735
0.30000000 -0.50000000 0.65000000 0.005735
0.30000000 -0.60000000 -0.65000000 0.005735
0.30000000 -0.60000000 0.55000000 0.005735
0.30000000 0.00000000 -0.55000000 0.005735
0.30000000 0.05000000 -0.70000000 0.005735
0.30000000 0.15000000 -0.80000000 0.005735
0.30000000 0.15000000 0.50000000 0.005735
0.30000000 0.20000000 -0.80000000 0.005735
0.30000000 0.25000000 -0.60000000 0.005735
0.30000000 0.25000000 -0.70000000 0.005735
0.30000000 0.50000000 0.50000000 0.005735
0.30000000 0.60000000 0.60000000 0.005735
0.30000000 0.80000000 -0.50000000 0.005735
0.30000000 0.85000000 -0.40000000 0.005735
0.35000000 -0.10000000 -0.85000000 0.005735
0.35000000 -0.15000000 -0.75000000 0.005735
0.35000000 -0.15000000 0.60000000 0.005735
0.35000000 -0.15000000 0.80000000 0.005735
0.35000000 -0.20000000 -0.80000000 0.005735
0.35000000 -0.20000000 -0.85000000 0.005735
0.35000000 -0.25000000 0.50000000 0.005735
0.35000000 -0.45000000 -0.65000000 0.005735
0.35000000 -0.50000000 -0.50000000 0.005735
0.35000000 -0.50000000 -0.65000000 0.005735
0.35000000 -0.55000000 -0.55000000 0.005735
0.35000000 -0.70000000 -0.50000000 0.005735
0.35000000 0.00000000 -0.65000000 0.005735
0.35000000 0.15000000 -0.65000000 0.005735
0.35000000 0.15000000 -0.90000000 0.005735
0.35000000 0.25000000 -0.65000000 0.005735
0.35000000 0.25000000 -0.70000000 0.005735
0.35000000 0.30000000 0.60000000 0.005735
0.35000000 0.40000000 -0.65000000 0.005735
0.35000000 0.55000000 -0.60000000 0.005735
0.35000000 0.60000000 -0.50000000 0.005735
0.35000000 0.65000000 -0.55000000 0.005735
0.40000000 -0.10000000 0.50000000 0.005735
0.40000000 -0.25000000 0.75000000 0.005735
0.40000000 -0.55000000 -0.65000000 0.005735
0.40000000 -0.85000000 0.35000000 0.005735
0.40000000 0.00000000 -0.65000000 0.005735
0.40000000 0.05000000 -0.60000000 0.005735
0.40000000 0.15000000 -0.60000000 0.005735
0.40000000 0.20000000 -0.55000000 0.005735
0.40000000 0.25000000 -0.80000000 0.005735
0.40000000 0.30000000 -0.60000000 0.005735
0.40000000 0.30000000 0.70000000 0.005735
0.40000000 0.40000000 -0.75000000 0.005735
0.40000000 0.40000000 0.75000000 0.005735
0.40000000 0.45000000 0.50000000 0.005735
0.45000000 -0.05000000 -0.75000000 0.005735
0.45000000 -0.10000000 -0.60000000 0.005735
0.45000000 -0.10000000 -0.80000000 0.005735
0.45000000 -0.15000000 -0.55000000 0.005735
0.45000000 -0.15000000 -0.70000000 0.005735
0.45000000 -0.20000000 0.60000000 0.005735
0.45000000 -0.25000000 -0.80000000 0.005735
0.45000000 -0.25000000 -0.85000000 0.005735
0.45000000 -0.40000000 -0.70000000 0.005735
0.45000000 -0.40000000 0.60000000 0.005735
0.45000000 -0.45000000 -0.60000000 0.005735
0.45000000 -0.50000000 0.55000000 0.005735
0.45000000 0.05000000 -0.85000000 0.005735
0.45000000 0.15000000 0.55000000 0.005735
0.45000000 0.35000000 -0.55000000 0.005735
0.45000000 0.45000000 -0.55000000 0.005735
0.45000000 0.45000000 0.65000000 0.005735
0.45000000 0.50000000 -0.55000000 0.005735
0.45000000 0.55000000 0.65000000 0.005735
0.45000000 0.60000000 0.65000000 0.005735
0.50000000 -0.25000000 0.75000000 0.005735
0.50000000 -0.35000000 0.60000000 0.005735
0.50000000 0.00000000 -0.75000000 0.005735
0.50000000 0.10000000 -0.55000000 0.005735
0.50000000 0.10000000 -0.60000000 0.005735
0.50000000 0.10000000 -0.65000000 0.005735
0.50000000 0.10000000 -0.75000000 0.005735
0.50000000 0.25000000 -0.75000000 0.005735
0.55000000 -0.15000000 0.65000000 0.005735
0.55000000 -0.30000000 -0.65000000 0.005735
0.55000000 -0.45000000 -0.60000000 0.005735
0.55000000 0.15000000 -0.60000000 0.005735
0.55000000 0.20000000 -0.65000000 0.005735
0.55000000 0.20000000 0.60000000 0.005735
0.55000000 0.30000000 -0.60000000 0.005735
0.55000000 0.30000000 0.75000000 0.005735
0.55000000 0.45000000 -0.55000000 0.005735
0.55000000 0.55000000 -0.45000000 0.005735
0.60000000 -0.05000000 -0.70000000 0.005735
0.60000000 -0.10000000 0.50000000 0.005735
0.60000000 -0.25000000 -0.65000000 0.005735
0.60000000 -0.25000000 -0.70000000 0.005735
0.60000000 -0.25000000 0.45000000 0.005735
0.60000000 -0.50000000 0.50000000 0.005735
0.60000000 -0.60000000 -0.50000000 0.005735
0.60000000 0.00000000 0.50000000 0.005735
0.60000000 0.10000000 0.75000000 0.005735
0.60000000 0.15000000 -0.75000000 0.005735
0.60000000 0.20000000 -0.60000000 0.005735
0.60000000 0.20000000 0.50000000 0.005735
0.60000000 0.25000000 0.70000000 0.005735
0.60000000 0.30000000 -0.55000000 0.005735
0.60000000 0.30000000 -0.60000000 0.005735
0.65000000 -0.05000000 0.60000000 0.005735
0.65000000 -0.15000000 0.55000000 0.005735
0.65000000 -0.30000000 -0.65000000 0.005735
0.70000000 -0.10000000 0.65000000 0.005735
0.70000000 -0.15000000 -0.65000000 0.005735
0.70000000 -0.20000000 -0.65000000 0.005735
0.70000000 -0.40000000 -0.55000000 0.005735
0.70000000 -0.50000000 -0.50000000 0.005735
0.70000000 0.05000000 -0.60000000 0.005735
0.70000000 0.15000000 -0.55000000 0.005735
0.70000000 0.15000000 -0.60000000 0.005735
0.70000000 0.25000000 0.55000000 0.005735
0.70000000 0.55000000 -0.45000000 0.005735
0.70000000 0.60000000 0.35000000 0.005735
0.75000000 -0.05000000 0.50000000 0.005735
0.75000000 -0.25000000 0.50000000 0.005735
0.75000000 0.10000000 0.50000000 0.005735
0.75000000 0.15000000 0.50000000 0.005735
0.75000000 0.20000000 -0.60000000 0.005735
0.80000000 -0.10000000 -0.50000000 0.005735
0.80000000 -0.35000000 0.45000000 0.005735
-0.05000000 -0.05000000 0.45000000 0.005860
-0.05000000 -0.20000000 0.55000000 0.005860
-0.05000000 -0.25000000 -0.65000000 0.005860
-0.05000000 -0.25000000 0.50000000 0.005860
-0.05000000 -0.35000000 -0.75000000 0.005860
-0.05000000 -0.40000000 -0.90000000 0.005860
-0.05000000 -0.45000000 -0.70000000 0.005860
-0.05000000 -0.75000000 0.50000000 0.005860
-0.05000000 0.00000000 -0.65000000 0.005860
-0.05000000 0.20000000 -0.50000000 0.005860
-0.05000000 0.30000000 -0.65000000 0.005860
-0.05000000 0.35000000 -0.65000000 0.005860
-0.05000000 0.55000000 -0.75000000 0.005860
-0.05000000 0.55000000 0.70000000 0.005860
-0.05000000 0.65000000 0.60000000 0.005860
-0.05000000 0.70000000 -0.65000000 0.005860
-0.10000000 -0.20000000 -0.70000000 0.005860
-0.10000000 -0.20000000 -0.90000000 0.005860
-0.10000000 -0.25000000 0.55000000 0.005860
-0.10000000 -0.45000000 -0.70000000 0.005860
-0.10000000 -0.50000000 -0.80000000 0.005860
-0.10000000 -0.50000000 0.55000000 0.005860
-0.10000000 -0.65000000 -0.70000000 0.005860
-0.10000000 -0.70000000 0.55000000 0.005860
-0.10000000 0.00000000 -0.55000000 0.005860
-0.10000000 0.15000000 -0.65000000 0.005860
-0.10000000 0.35000000 -0.80000000 0.005860
-0.10000000 0.45000000 -0.65000000 0.005860
-0.10000000 0.70000000 0.50000000 0.005860
-0.10000000 0.90000000 0.40000000 0.005860
-0.15000000 -0.35000000 -0.65000000 0.005860
-0.15000000 -0.50000000 -0.60000000 0.005860
-0.15000000 -0.75000000 -0.60000000 0.005860
-0.15000000 -0.80000000 -0.55000000 0.005860
-0.15000000 0.10000000 0.45000000 0.005860
-0.15000000 0.30000000 -0.50000000 0.005860
-0.15000000 0.65000000 0.50000000 0.005860
-0.20000000 -0.10000000 -0.65000000 0.005860
-0.20000000 -0.35000000 0.45000000 0.005860
-0.20000000 -0.50000000 -0.65000000 0.005860
-0.20000000 -0.55000000 -0.75000000 0.005860
-0.20000000 0.00000000 0.45000000 0.005860
-0.20000000 0.25000000 -0.65000000 0.005860
-0.20000000 0.40000000 -0.75000000 0.005860
-0.20000000 0.50000000 -0.50000000 0.005860
-0.20000000 0.60000000 -0.65000000 0.005860
-0.20000000 0.60000000 0.45000000 0.005860
-0.25000000 -0.10000000 -0.85000000 0.005860
-0.25000000 -0.25000000 -0.65000000 0.005860
-0.25000000 -0.45000000 -0.70000000 0.005860
-0.25000000 -0.60000000 -0.60000000 0.005860
-0.25000000 0.00000000 -0.85000000 0.005860
-0.25000000 0.15000000 -0.80000000 0.005860
-0.25000000 0.50000000 -0.75000000 0.005860
-0.25000000 0.70000000 0.45000000 0.005860
-0.25000000 0.70000000 0.55000000 0.005860
-0.25000000 0.85000000 0.45000000 0.005860
-0.25000000 0.90000000 0.35000000 0.005860
-0.30000000 -0.05000000 -0.45000000 0.005860
-0.30000000 -0.15000000 -0.60000000 0.005860
-0.30000000 -0.70000000 -0.45000000 0.005860
-0.30000000 0.00000000 -0.80000000 0.005860
-0.30000000 0.15000000 -0.60000000 0.005860
-0.30000000 0.35000000 -0.70000000 0.005860
-0.30000000 0.40000000 -0.80000000 0.005860
-0.30000000 0.65000000 0.50000000 0.005860
-0.30000000 0.80000000 0.45000000 0.005860
-0.35000000 -0.20000000 -0.90000000 0.005860
-0.35000000 -0.50000000 0.60000000 0.005860
-0.35000000 0.10000000 -0.90000000 0.005860
-0.35000000 0.40000000 -0.65000000 0.005860
-0.35000000 0.40000000 0.50000000 0.005860
-0.35000000 0.45000000 -0.55000000 0.005860
-0.35000000 0.55000000 -0.70000000 0.005860
-0.35000000 0.70000000 0.55000000 0.005860
-0.35000000 0.70000000 0.60000000 0.005860
-0.40000000 -0.15000000 0.65000000 0.005860
-0.40000000 -0.40000000 -0.65000000 0.005860
-0.40000000 -0.40000000 -0.70000000 0.005860
-0.40000000 -0.50000000 -0.60000000 0.005860
-0.40000000 0.05000000 -0.85000000 0.005860
-0.40000000 0.35000000 0.45000000 0.005860
-0.40000000 0.55000000 0.50000000 0.005860
-0.40000000 0.60000000 -0.60000000 0.005860
-0.40000000 0.70000000 0.55000000 0.005860
-0.45000000 -0.10000000 -0.65000000 0.005860
-0.45000000 -0.10000000 -0.70000000 0.005860
-0.45000000 -0.10000000 0.50000000 0.005860
-0.45000000 -0.15000000 -0.60000000 0.005860
-0.45000000 -0.25000000 -0.70000000 0.005860
-0.45000000 -0.35000000 -0.70000000 0.005860
-0.45000000 -0.50000000 -0.60000000 0.005860
-0.45000000 0.15000000 0.45000000 0.005860
-0.45000000 0.15000000 0.55000000 0.005860
-0.45000000 0.20000000 -0.70000000 0.005860
-0.45000000 0.40000000 -0.65000000 0.005860
-0.45000000 0.65000000 0.50000000 0.005860
-0.50000000 -0.05000000 0.45000000 0.005860
-0.50000000 -0.10000000 -0.55000000 0.005860
-0.50000000 -0.50000000 -0.65000000 0.005860
-0.50000000 0.10000000 -0.70000000 0.005860
-0.50000000 0.40000000 -0.55000000 0.005860
-0.50000000 0.45000000 -0.65000000 0.005860
-0.50000000 0.55000000 -0.55000000 0.005860
-0.55000000 -0.45000000 0.50000000 0.005860
-0.55000000 -0.50000000 -0.60000000 0.005860
-0.55000000 -0.50000000 -0.65000000 0.005860
-0.55000000 -0.60000000 0.50000000 0.005860
-0.55000000 0.00000000 -0.50000000 0.005860
-0.55000000 0.05000000 0.50000000 0.005860
-0.55000000 0.25000000 0.60000000 0.005860
-0.55000000 0.25000000 0.70000000 0.005860
-0.55000000 0.35000000 0.45000000 0.005860
-0.55000000 0.35000000 0.50000000 0.005860
-0.55000000 0.40000000 0.60000000 0.005860
-0.55000000 0.60000000 -0.55000000 0.005860
-0.60000000 -0.10000000 -0.70000000 0.005860
-0.60000000 -0.35000000 0.65000000 0.005860
-0.60000000 -0.40000000 -0.65000000 0.005860
-0.60000000 -0.45000000 -0.60000000 0.005860
-0.60000000 0.05000000 -0.75000000 0.005860
-0.60000000 0.15000000 -0.55000000 0.005860
-0.60000000 0.40000000 0.50000000 0.005860
-0.60000000 0.65000000 -0.45000000 0.005860
-0.65000000 -0.10000000 -0.65000000 0.005860
-0.65000000 -0.25000000 0.60000000 0.005860
-0.65000000 -0.40000000 0.55000000 0.005860
-0.65000000 0.15000000 0.60000000 0.005860
-0.65000000 0.20000000 0.70000000 0.005860
-0.65000000 0.35000000 0.50000000 0.005860
-0.70000000 -0.05000000 -0.70000000 0.005860
-0.70000000 0.35000000 0.50000000 0.005860
-0.75000000 -0.10000000 -0.60000000 0.005860
-0.75000000 -0.15000000 0.50000000 0.005860
-0.75000000 -0.25000000 0.55000000 0.005860
-0.75000000 0.00000000 -0.60000000 0.005860
-0.75000000 0.00000000 0.50000000 0.005860
-0.75000000 0.10000000 0.50000000 0.005860
-0.75000000 0.35000000 0.50000000 0.005860
-0.85000000 -0.05000000 -0.50000000 0.005860
-0.85000000 -0.45000000 -0.30000000 0.005860
-0.85000000 0.00000000 0.50000000 0.005860
-0.85000000 0.45000000 -0.30000000 0.005860
-0.95000000 0.05000000 0.30000000 0.005860
0.00000000 -0.10000000 -0.90000000 0.005860
0.00000000 -0.35000000 -0.65000000 0.005860
0.00000000 -0.45000000 0.60000000 0.005860
0.00000000 -0.55000000 -0.80000000 0.005860
0.00000000 0.00000000 -0.65000000 0.005860
0.00000000 0.05000000 -0.55000000 0.005860
0.00000000 0.05000000 -0.80000000 0.005860
0.00000000 0.15000000 -0.75000000 0.005860
0.00000000 0.20000000 -0.55000000 0.005860
0.00000000 0.25000000 -0.70000000 0.005860
0.00000000 0.25000000 0.45000000 0.005860
0.00000000 0.30000000 -0.80000000 0.005860
0.00000000 0.35000000 -0.55000000 0.005860
0.00000000 0.60000000 -0.60000000 0.005860
0.05000000 -0.10000000 -0.75000000 0.005860
0.05000000 -0.20000000 -0.80000000 0.005860
0.05000000 -0.20000000 0.55000000 0.005860
0.05000000 -0.30000000 0.60000000 0.005860
0.05000000 -0.40000000 0.55000000 0.005860
0.05000000 -0.45000000 -0.85000000 0.005860
0.05000000 -0.50000000 -0.75000000 0.005860
0.05000000 -0.50000000 -0.85000000 0.005860
0.05000000 -0.60000000 -0.65000000 0.005860
0.05000000 -0.60000000 0.70000000 0.005860
0.05000000 -0.70000000 -0.45000000 0.005860
0.05000000 -0.80000000 0.50000000 0.005860
0.05000000 0.15000000 -0.75000000 0.005860
0.05000000 0.50000000 -0.80000000 0.005860
0.05000000 0.50000000 0.45000000 0.005860
0.05000000 0.55000000 0.60000000 0.005860
0.05000000 0.55000000 0.70000000 0.005860
0.05000000 0.65000000 -0.65000000 0.005860
0.05000000 0.75000000 0.45000000 0.005860
0.05000000 0.90000000 0.40000000 0.005860
0.10000000 -0.05000000 -0.75000000 0.005860
0.10000000 -0.05000000 -0.80000000 0.005860
0.10000000 -0.25000000 -0.75000000 0.005860
0.10000000 -0.25000000 0.45000000 0.005860
0.10000000 -0.50000000 0.50000000 0.005860
0.10000000 0.00000000 -0.75000000 0.005860
0.10000000 0.00000000 -0.80000000 0.005860
0.10000000 0.00000000 0.45000000 0.005860
0.10000000 0.15000000 -0.70000000 0.005860
0.10000000 0.30000000 0.50000000 0.005860
0.10000000 0.40000000 -0.80000000 0.005860
0.10000000 0.45000000 -0.55000000 0.005860
0.10000000 0.45000000 0.45000000 0.005860
0.10000000 0.55000000 -0.55000000 0.005860
0.10000000 0.70000000 0.65000000 0.005860
0.10000000 0.80000000 0.45000000 0.005860
0.15000000 -0.10000000 0.55000000 0.005860
0.15000000 -0.35000000 0.50000000 0.005860
0.15000000 -0.40000000 -0.75000000 0.005860
0.15000000 -0.40000000 0.70000000 0.005860
0.15000000 -0.45000000 -0.45000000 0.005860
0.15000000 -0.45000000 -0.70000000 0.005860
0.15000000 -0.60000000 0.60000000 0.005860
0.15000000 -0.75000000 -0.55000000 0.005860
0.15000000 0.05000000 -0.75000000 0.005860
0.15000000 0.40000000 -0.55000000 0.005860
0.15000000 0.55000000 -0.55000000 0.005860
0.15000000 0.60000000 -0.60000000 0.005860
0.15000000 0.60000000 -0.75000000 0.005860
0.20000000 -0.05000000 -0.55000000 0.005860
0.20000000 -0.10000000 -0.80000000 0.005860
0.20000000 -0.10000000 0.85000000 0.005860
0.20000000 -0.15000000 -0.60000000 0.005860
0.20000000 -0.15000000 0.90000000 0.005860
0.20000000 -0.25000000 -0.80000000 0.005860
0.20000000 -0.25000000 0.55000000 0.005860
0.20000000 -0.35000000 0.55000000 0.005860
0.20000000 -0.45000000 -0.80000000 0.005860
0.20000000 -0.50000000 -0.75000000 0.005860
0.20000000 -0.55000000 0.65000000 0.005860
0.20000000 -0.65000000 -0.50000000 0.005860
0.20000000 -0.80000000 0.50000000 0.005860
0.20000000 0.00000000 -0.70000000 0.005860
0.20000000 0.05000000 -0.50000000 0.005860
0.20000000 0.05000000 -0.90000000 0.005860
0.20000000 0.20000000 -0.80000000 0.005860
0.20000000 0.45000000 -0.75000000 0.005860
0.20000000 0.50000000 -0.75000000 0.005860
0.20000000 0.55000000 -0.55000000 0.005860
0.20000000 0.55000000 -0.65000000 0.005860
0.25000000 -0.05000000 -0.55000000 0.005860
0.25000000 -0.10000000 -0.55000000 0.005860
0.25000000 -0.10000000 -0.75000000 0.005860
0.25000000 -0.10000000 -0.90000000 0.005860
0.25000000 -0.10000000 0.55000000 0.005860
0.25000000 -0.15000000 0.90000000 0.005860
0.25000000 -0.20000000 -0.80000000 0.005860
0.25000000 -0.30000000 -0.85000000 0.005860
0.25000000 -0.40000000 -0.70000000 0.005860
0.25000000 -0.50000000 -0.70000000 0.005860
0.25000000 -0.70000000 0.50000000 0.005860
0.25000000 0.40000000 -0.70000000 0.005860
0.25000000 0.55000000 -0.50000000 0.005860
0.25000000 0.55000000 -0.75000000 0.005860
0.25000000 0.60000000 -0.65000000 0.005860
0.25000000 0.65000000 -0.60000000 0.005860
0.25000000 0.85000000 -0.45000000 0.005860
0.30000000 -0.15000000 -0.75000000 0.005860
0.30000000 -0.15000000 0.50000000 0.005860
0.30000000 -0.20000000 -0.50000000 0.005860
0.30000000 -0.20000000 0.85000000 0.005860
0.30000000 -0.25000000 -0.75000000 0.005860
0.30000000 -0.30000000 -0.60000000 0.005860
0.30000000 -0.30000000 0.55000000 0.005860
0.30000000 -0.30000000 0.85000000 0.005860
0.30000000 -0.50000000 -0.75000000 0.005860
0.30000000 -0.70000000 0.60000000 0.005860
0.30000000 -0.75000000 -0.50000000 0.005860
0.30000000 0.00000000 -0.50000000 0.005860
0.30000000 0.00000000 0.50000000 0.005860
0.30000000 0.05000000 -0.80000000 0.005860
0.30000000 0.10000000 -0.75000000 0.005860
0.30000000 0.20000000 -0.65000000 0.005860
0.30000000 0.50000000 0.60000000 0.005860
0.30000000 0.55000000 0.60000000 0.005860
0.30000000 0.65000000 -0.65000000 0.005860
0.30000000 0.65000000 0.45000000 0.005860
0.35000000 -0.05000000 -0.55000000 0.005860
0.35000000 -0.05000000 0.80000000 0.005860
0.35000000 -0.10000000 -0.60000000 0.005860
0.35000000 -0.10000000 0.60000000 0.005860
0.35000000 -0.35000000 0.70000000 0.005860
0.35000000 -0.70000000 -0.55000000 0.005860
0.35000000 0.05000000 0.70000000 0.005860
0.35000000 0.15000000 -0.80000000 0.005860
0.35000000 0.30000000 -0.50000000 0.005860
0.35000000 0.35000000 -0.45000000 0.005860
0.35000000 0.35000000 -0.70000000 0.005860
0.35000000 0.50000000 -0.75000000 0.005860
0.35000000 0.55000000 -0.65000000 0.005860
0.35000000 0.70000000 0.55000000 0.005860
0.40000000 -0.20000000 0.60000000 0.005860
0.40000000 -0.25000000 -0.75000000 0.005860
0.40000000 -0.35000000 0.60000000 0.005860
0.40000000 -0.40000000 -0.55000000 0.005860
0.40000000 -0.40000000 -0.70000000 0.005860
0.40000000 -0.40000000 0.65000000 0.005860
0.40000000 -0.45000000 0.55000000 0.005860
0.40000000 0.00000000 -0.80000000 0.005860
0.40000000 0.00000000 -0.85000000 0.005860
0.40000000 0.00000000 0.50000000 0.005860
0.40000000 0.00000000 0.65000000 0.005860
0.40000000 0.10000000 -0.60000000 0.005860
0.40000000 0.20000000 -0.60000000 0.005860
0.40000000 0.25000000 -0.75000000 0.005860
0.40000000 0.30000000 -0.50000000 0.005860
0.40000000 0.40000000 -0.50000000 0.005860
0.40000000 0.45000000 -0.45000000 0.005860
0.40000000 0.45000000 -0.75000000 0.005860
0.40000000 0.50000000 0.60000000 0.005860
0.40000000 0.55000000 0.60000000 0.005860
0.40000000 0.70000000 0.45000000 0.005860
0.45000000 -0.20000000 0.80000000 0.005860
0.45000000 -0.25000000 -0.55000000 0.005860
0.45000000 -0.30000000 -0.55000000 0.005860
0.45000000 -0.30000000 -0.70000000 0.005860
0.45000000 -0.30000000 -0.75000000 0.005860
0.45000000 -0.30000000 0.65000000 0.005860
0.45000000 -0.35000000 0.75000000 0.005860
0.45000000 -0.50000000 -0.55000000 0.005860
0.45000000 -0.80000000 0.40000000 0.005860
0.45000000 0.10000000 -0.75000000 0.005860
0.45000000 0.10000000 -0.85000000 0.005860
0.45000000 0.30000000 -0.55000000 0.005860
0.45000000 0.35000000 -0.65000000 0.005860
0.45000000 0.35000000 0.50000000 0.005860
0.45000000 0.40000000 0.65000000 0.005860
0.45000000 0.50000000 0.70000000 0.005860
0.45000000 0.65000000 0.50000000 0.005860
0.50000000 -0.20000000 -0.75000000 0.005860
0.50000000 -0.25000000 -0.55000000 0.005860
0.50000000 0.00000000 -0.50000000 0.005860
0.50000000 0.00000000 -0.70000000 0.005860
0.50000000 0.05000000 -0.85000000 0.005860
0.50000000 0.50000000 -0.50000000 0.005860
0.55000000 -0.05000000 0.75000000 0.005860
0.55000000 -0.15000000 -0.70000000 0.005860
0.55000000 -0.15000000 -0.75000000 0.005860
0.55000000 -0.15000000 0.75000000 0.005860
0.55000000 -0.20000000 0.50000000 0.005860
0.55000000 -0.45000000 0.50000000 0.005860
0.55000000 0.05000000 -0.75000000 0.005860
0.55000000 0.30000000 0.55000000 0.005860
0.55000000 0.40000000 -0.55000000 0.005860
0.55000000 0.40000000 0.70000000 0.005860
0.55000000 0.65000000 -0.50000000 0.005860
0.60000000 -0.05000000 -0.65000000 0.005860
0.60000000 -0.35000000 0.45000000 0.005860
0.60000000 -0.40000000 0.50000000 0.005860
0.60000000 -0.45000000 -0.55000000 0.005860
0.60000000 0.05000000 -0.60000000 0.005860
0.60000000 0.15000000 -0.70000000 0.005860
0.60000000 0.20000000 0.65000000 0.005860
0.60000000 0.30000000 0.65000000 0.005860
0.60000000 0.45000000 0.55000000 0.005860
0.60000000 0.45000000 0.60000000 0.005860
0.65000000 -0.15000000 -0.65000000 0.005860
0.65000000 -0.25000000 0.65000000 0.005860
0.65000000 -0.30000000 -0.55000000 0.005860
0.65000000 -0.30000000 0.60000000 0.005860
0.65000000 -0.35000000 0.65000000 0.005860
0.65000000 0.05000000 0.65000000 0.005860
0.65000000 0.10000000 -0.60000000 0.005860
0.65000000 0.30000000 0.65000000 0.005860
0.70000000 -0.05000000 -0.60000000 0.005860
0.70000000 -0.25000000 -0.60000000 0.005860
0.70000000 -0.30000000 -0.50000000 0.005860
0.70000000 -0.70000000 0.20000000 0.005860
0.70000000 0.05000000 -0.65000000 0.005860
0.70000000 0.10000000 -0.60000000 0.005860
0.70000000 0.15000000 0.65000000 0.005860
0.70000000 0.20000000 -0.60000000 0.005860
0.75000000 -0.65000000 -0.20000000 0.005860
0.75000000 0.05000000 0.50000000 0.005860
0.75000000 0.10000000 -0.60000000 0.005860
0.75000000 0.25000000 -0.55000000 0.005860
0.80000000 -0.05000000 -0.55000000 0.005860
0.85000000 -0.05000000 0.50000000 0.005860
0.90000000 -0.10000000 -0.40000000 0.005860
0.95000000 -0.20000000 0.25000000 0.005860
-0.05000000 -0.35000000 -0.60000000 0.005984
-0.05000000 -0.40000000 -0.70000000 0.005984
-0.05000000 -0.45000000 -0.85000000 0.005984
-0.05000000 -0.50000000 -0.75000000 0.005984
-0.05000000 -0.55000000 -0.60000000 0.005984
-0.05000000 -0.75000000 -0.55000000 0.005984
-0.05000000 0.25000000 0.45000000 0.005984
-0.05000000 0.45000000 -0.65000000 0.005984
-0.10000000 -0.35000000 -0.55000000 0.005984
-0.10000000 -0.35000000 -0.65000000 0.005984
-0.10000000 -0.60000000 -0.60000000 0.005984
-0.10000000 -0.75000000 -0.55000000 0.005984
-0.10000000 0.00000000 -0.65000000 0.005984
-0.10000000 0.10000000 -0.80000000 0.005984
-0.10000000 0.20000000 0.45000000 0.005984
-0.10000000 0.25000000 -0.85000000 0.005984
-0.10000000 0.25000000 -0.90000000 0.005984
-0.10000000 0.35000000 -0.55000000 0.005984
-0.15000000 -0.15000000 -0.85000000 0.005984
-0.15000000 -0.30000000 -0.90000000 0.005984
-0.15000000 -0.35000000 -0.80000000 0.005984
-0.15000000 0.00000000 0.45000000 0.005984
-0.15000000 0.45000000 -0.75000000 0.005984
-0.15000000 0.55000000 0.50000000 0.005984
-0.15000000 0.60000000 -0.65000000 0.005984
-0.15000000 0.60000000 -0.75000000 0.005984
-0.15000000 0.80000000 0.45000000 0.005984
-0.20000000 -0.20000000 0.45000000 0.005984
-0.20000000 -0.25000000 0.55000000 0.005984
-0.20000000 -0.45000000 -0.55000000 0.005984
-0.20000000 -0.45000000 -0.65000000 0.005984
-0.20000000 -0.55000000 0.35000000 0.005984
-0.20000000 -0.65000000 -0.65000000 0.005984
-0.20000000 0.25000000 -0.60000000 0.005984
-0.20000000 0.25000000 -0.75000000 0.005984
-0.20000000 0.25000000 0.45000000 0.005984
-0.20000000 0.55000000 -0.70000000 0.005984
-0.25000000 -0.05000000 -0.80000000 0.005984
-0.25000000 -0.15000000 -0.55000000 0.005984
-0.25000000 -0.55000000 -0.65000000 0.005984
-0.25000000 -0.65000000 -0.65000000 0.005984
-0.25000000 0.10000000 -0.75000000 0.005984
-0.25000000 0.10000000 -0.85000000 0.005984
-0.25000000 0.15000000 -0.55000000 0.005984
-0.25000000 0.50000000 -0.65000000 0.005984
-0.25000000 0.55000000 -0.75000000 0.005984
-0.25000000 0.75000000 0.55000000 0.005984
-0.30000000 -0.05000000 -0.80000000 0.005984
-0.30000000 -0.05000000 -0.85000000 0.005984
-0.30000000 -0.10000000 -0.80000000 0.005984
-0.30000000 -0.20000000 -0.80000000 0.005984
-0.30000000 -0.20000000 -0.90000000 0.005984
-0.30000000 -0.30000000 0.45000000 0.005984
-0.30000000 -0.60000000 -0.60000000 0.005984
-0.30000000 -0.75000000 -0.55000000 0.005984
-0.30000000 0.25000000 -0.55000000 0.005984
-0.30000000 0.25000000 -0.60000000 0.005984
-0.30000000 0.25000000 -0.85000000 0.005984
-0.30000000 0.30000000 -0.70000000 0.005984
-0.30000000 0.35000000 0.65000000 0.005984
-0.30000000 0.70000000 0.55000000 0.005984
-0.35000000 -0.35000000 -0.55000000 0.005984
-0.35000000 -0.35000000 -0.85000000 0.005984
-0.35000000 -0.40000000 -0.70000000 0.005984
-0.35000000 -0.55000000 -0.55000000 0.005984
-0.35000000 -0.55000000 -0.65000000 0.005984
-0.35000000 0.30000000 -0.65000000 0.005984
-0.35000000 0.30000000 0.50000000 0.005984
-0.35000000 0.35000000 -0.85000000 0.005984
-0.35000000 0.40000000 0.45000000 0.005984
-0.40000000 -0.10000000 -0.65000000 0.005984
-0.40000000 -0.25000000 -0.80000000 0.005984
-0.40000000 -0.30000000 -0.65000000 0.005984
-0.40000000 -0.35000000 0.60000000 0.005984
-0.40000000 0.05000000 0.60000000 0.005984
-0.40000000 0.25000000 -0.45000000 0.005984
-0.40000000 0.25000000 -0.75000000 0.005984
-0.40000000 0.55000000 -0.45000000 0.005984
-0.40000000 0.60000000 -0.65000000 0.005984
-0.40000000 0.60000000 0.55000000 0.005984
-0.40000000 0.75000000 0.45000000 0.005984
-0.45000000 -0.05000000 0.45000000 0.005984
-0.45000000 -0.15000000 0.50000000 0.005984
-0.45000000 -0.60000000 0.50000000 0.005984
-0.45000000 -0.70000000 0.50000000 0.005984
-0.45000000 0.05000000 0.45000000 0.005984
-0.45000000 0.20000000 -0.80000000 0.005984
-0.45000000 0.30000000 -0.60000000 0.005984
-0.45000000 0.30000000 -0.70000000 0.005984
-0.45000000 0.30000000 -0.75000000 0.005984
-0.45000000 0.50000000 -0.60000000 0.005984
-0.45000000 0.50000000 0.50000000 0.005984
-0.50000000 -0.05000000 -0.65000000 0.005984
-0.50000000 -0.10000000 -0.65000000 0.005984
-0.50000000 -0.20000000 -0.60000000 0.005984
-0.50000000 -0.60000000 -0.50000000 0.005984
-0.50000000 0.00000000 -0.60000000 0.005984
-0.50000000 0.10000000 -0.80000000 0.005984
-0.50000000 0.20000000 -0.80000000 0.005984
-0.50000000 0.30000000 -0.55000000 0.005984
-0.50000000 0.35000000 0.45000000 0.005984
-0.50000000 0.45000000 -0.55000000 0.005984
-0.50000000 0.50000000 -0.60000000 0.005984
-0.55000000 -0.05000000 -0.75000000 0.005984
-0.55000000 -0.05000000 0.50000000 0.005984
-0.55000000 -0.30000000 -0.70000000 0.005984
-0.55000000 -0.30000000 0.50000000 0.005984
-0.55000000 -0.65000000 -0.50000000 0.005984
-0.55000000 0.25000000 -0.70000000 0.005984
-0.55000000 0.45000000 -0.55000000 0.005984
-0.60000000 -0.30000000 -0.55000000 0.005984
-0.60000000 0.00000000 0.45000000 0.005984
-0.60000000 0.10000000 0.45000000 0.005984
-0.60000000 0.15000000 -0.75000000 0.005984
-0.65000000 -0.10000000 0.50000000 0.005984
-0.65000000 -0.20000000 0.55000000 0.005984
-0.65000000 -0.75000000 -0.20000000 0.005984
-0.65000000 0.00000000 -0.50000000 0.005984
-0.65000000 0.05000000 0.60000000 0.005984
-0.65000000 0.10000000 -0.60000000 0.005984
-0.65000000 0.35000000 0.45000000 0.005984
-0.65000000 0.50000000 -0.55000000 0.005984
-0.65000000 0.55000000 0.50000000 0.005984
-0.65000000 0.60000000 -0.45000000 0.005984
-0.70000000 -0.05000000 -0.60000000 0.005984
-0.70000000 -0.05000000 0.50000000 0.005984
-0.70000000 -0.15000000 -0.55000000 0.005984
-0.70000000 0.10000000 0.65000000 0.005984
-0.70000000 0.20000000 0.50000000 0.005984
-0.70000000 0.50000000 -0.50000000 0.005984
-0.70000000 0.55000000 -0.45000000 0.005984
-0.80000000 -0.15000000 -0.45000000 0.005984
-0.80000000 0.00000000 0.45000000 0.005984
-0.80000000 0.05000000 0.55000000 0.005984
-0.85000000 -0.15000000 -0.50000000 0.005984
-0.95000000 -0.20000000 0.25000000 0.005984
-0.95000000 0.25000000 0.20000000 0.005984
0.00000000 -0.10000000 -0.65000000 0.005984
0.00000000 -0.15000000 -0.75000000 0.005984
0.00000000 -0.25000000 -0.70000000 0.005984
0.00000000 -0.30000000 -0.70000000 0.005984
0.00000000 -0.40000000 -0.55000000 0.005984
0.00000000 -0.65000000 -0.50000000 0.005984
0.00000000 0.00000000 -0.60000000 0.005984
0.00000000 0.10000000 0.45000000 0.005984
0.00000000 0.15000000 -0.60000000 0.005984
0.00000000 0.20000000 -0.85000000 0.005984
0.00000000 0.20000000 -0.90000000 0.005984
0.00000000 0.25000000 -0.80000000 0.005984
0.00000000 0.40000000 -0.60000000 0.005984
0.00000000 0.55000000 0.70000000 0.005984
0.05000000 -0.05000000 -0.65000000 0.005984
0.05000000 -0.05000000 -0.85000000 0.005984
0.05000000 -0.05000000 0.45000000 0.005984
0.05000000 -0.10000000 -0.65000000 0.005984
0.05000000 -0.15000000 -0.85000000 0.005984
0.05000000 -0.15000000 0.45000000 0.005984
0.05000000 -0.40000000 -0.80000000 0.005984
0.05000000 -0.65000000 0.70000000 0.005984
0.05000000 -0.75000000 0.60000000 0.005984
0.05000000 0.10000000 -0.90000000 0.005984
0.05000000 0.35000000 -0.60000000 0.005984
0.05000000 0.60000000 -0.50000000 0.005984
0.05000000 0.60000000 0.50000000 0.005984
0.10000000 -0.15000000 -0.75000000 0.005984
0.10000000 -0.30000000 0.85000000 0.005984
0.10000000 -0.50000000 -0.65000000 0.005984
0.10000000 -0.70000000 0.60000000 0.005984
0.10000000 0.00000000 -0.65000000 0.005984
0.10000000 0.00000000 -0.85000000 0.005984
0.10000000 0.05000000 -0.65000000 0.005984
0.10000000 0.10000000 -0.90000000 0.005984
0.10000000 0.20000000 -0.75000000 0.005984
0.10000000 0.20000000 -0.90000000 0.005984
0.10000000 0.30000000 -0.75000000 0.005984
0.10000000 0.30000000 -0.90000000 0.005984
0.10000000 0.35000000 -0.60000000 0.005984
0.10000000 0.40000000 -0.60000000 0.005984
0.10000000 0.45000000 -0.60000000 0.005984
0.10000000 0.45000000 -0.75000000 0.005984
0.10000000 0.55000000 -0.75000000 0.005984
0.10000000 0.70000000 -0.65000000 0.005984
0.15000000 -0.10000000 -0.60000000 0.005984
0.15000000 -0.35000000 0.55000000 0.005984
0.15000000 -0.35000000 0.70000000 0.005984
0.15000000 -0.40000000 -0.65000000 0.005984
0.15000000 -0.45000000 -0.60000000 0.005984
0.15000000 -0.50000000 -0.50000000 0.005984
0.15000000 -0.60000000 -0.50000000 0.005984
0.15000000 -0.65000000 0.55000000 0.005984
0.15000000 0.10000000 -0.70000000 0.005984
0.15000000 0.20000000 -0.75000000 0.005984
0.15000000 0.45000000 0.50000000 0.005984
0.15000000 0.50000000 -0.75000000 0.005984
0.15000000 0.55000000 -0.60000000 0.005984
0.15000000 0.60000000 -0.50000000 0.005984
0.15000000 0.65000000 -0.65000000 0.005984
0.15000000 0.80000000 0.40000000 0.005984
0.20000000 -0.10000000 -0.60000000 0.005984
0.20000000 -0.20000000 -0.85000000 0.005984
0.20000000 -0.20000000 0.90000000 0.005984
0.20000000 -0.30000000 -0.75000000 0.005984
0.20000000 -0.40000000 -0.80000000 0.005984
0.20000000 -0.45000000 -0.75000000 0.005984
0.20000000 -0.45000000 0.60000000 0.005984
0.20000000 -0.50000000 -0.55000000 0.005984
0.20000000 -0.50000000 -0.60000000 0.005984
0.20000000 -0.70000000 0.65000000 0.005984
0.20000000 0.10000000 -0.90000000 0.005984
0.20000000 0.15000000 -0.75000000 0.005984
0.20000000 0.20000000 -0.75000000 0.005984
0.20000000 0.45000000 -0.65000000 0.005984
0.20000000 0.45000000 -0.80000000 0.005984
0.20000000 0.50000000 -0.55000000 0.005984
0.20000000 0.60000000 -0.60000000 0.005984
0.20000000 0.60000000 0.65000000 0.005984
0.25000000 -0.05000000 0.55000000 0.005984
0.25000000 -0.10000000 -0.85000000 0.005984
0.25000000 -0.20000000 -0.65000000 0.005984
0.25000000 -0.25000000 -0.85000000 0.005984
0.25000000 -0.25000000 0.55000000 0.005984
0.25000000 -0.25000000 0.85000000 0.005984
0.25000000 -0.30000000 -0.65000000 0.005984
0.25000000 -0.30000000 -0.90000000 0.005984
0.25000000 -0.35000000 0.75000000 0.005984
0.25000000 -0.50000000 -0.80000000 0.005984
0.25000000 -0.50000000 0.50000000 0.005984
0.25000000 -0.50000000 0.60000000 0.005984
0.25000000 0.05000000 -0.75000000 0.005984
0.25000000 0.15000000 -0.60000000 0.005984
0.25000000 0.20000000 -0.50000000 0.005984
0.25000000 0.20000000 -0.65000000 0.005984
0.25000000 0.20000000 -0.70000000 0.005984
0.25000000 0.20000000 0.50000000 0.005984
0.25000000 0.25000000 0.45000000 0.005984
0.25000000 0.45000000 -0.60000000 0.005984
0.25000000 0.50000000 -0.65000000 0.005984
0.25000000 0.55000000 0.50000000 0.005984
0.25000000 0.55000000 0.65000000 0.005984
0.25000000 0.90000000 -0.35000000 0.005984
0.25000000 0.90000000 0.35000000 0.005984
0.30000000 -0.10000000 -0.60000000 0.005984
0.30000000 -0.10000000 -0.65000000 0.005984
0.30000000 -0.15000000 -0.70000000 0.005984
0.30000000 -0.20000000 -0.55000000 0.005984
0.30000000 -0.20000000 -0.85000000 0.005984
0.30000000 -0.25000000 -0.60000000 0.005984
0.30000000 -0.35000000 -0.75000000 0.005984
0.30000000 -0.40000000 -0.55000000 0.005984
0.30000000 -0.40000000 -0.80000000 0.005984
0.30000000 -0.45000000 0.55000000 0.005984
0.30000000 0.05000000 -0.60000000 0.005984
0.30000000 0.05000000 0.45000000 0.005984
0.30000000 0.30000000 -0.65000000 0.005984
0.30000000 0.35000000 -0.85000000 0.005984
0.30000000 0.40000000 -0.75000000 0.005984
0.30000000 0.50000000 -0.60000000 0.005984
0.30000000 0.55000000 -0.70000000 0.005984
0.30000000 0.55000000 0.45000000 0.005984
0.35000000 -0.10000000 -0.80000000 0.005984
0.35000000 -0.15000000 0.85000000 0.005984
0.35000000 -0.25000000 -0.80000000 0.005984
0.35000000 -0.30000000 -0.60000000 0.005984
0.35000000 -0.35000000 0.55000000 0.005984
0.35000000 -0.40000000 0.65000000 0.005984
0.35000000 -0.55000000 0.65000000 0.005984
0.35000000 0.05000000 -0.75000000 0.005984
0.35000000 0.05000000 0.45000000 0.005984
0.35000000 0.10000000 -0.55000000 0.005984
0.35000000 0.10000000 -0.70000000 0.005984
0.35000000 0.10000000 -0.75000000 0.005984
0.35000000 0.15000000 -0.55000000 0.005984
0.35000000 0.15000000 -0.60000000 0.005984
0.35000000 0.35000000 0.50000000 0.005984
0.35000000 0.45000000 0.80000000 0.005984
0.35000000 0.50000000 -0.50000000 0.005984
0.35000000 0.50000000 0.55000000 0.005984
0.35000000 0.60000000 -0.55000000 0.005984
0.35000000 0.60000000 -0.65000000 0.005984
0.35000000 0.70000000 0.45000000 0.005984
0.40000000 -0.10000000 -0.60000000 0.005984
0.40000000 -0.20000000 -0.80000000 0.005984
0.40000000 -0.25000000 0.70000000 0.005984
0.40000000 -0.30000000 -0.85000000 0.005984
0.40000000 -0.50000000 0.65000000 0.005984
0.40000000 -0.70000000 0.55000000 0.005984
0.40000000 0.00000000 -0.60000000 0.005984
0.40000000 0.05000000 0.45000000 0.005984
0.40000000 0.10000000 -0.65000000 0.005984
0.40000000 0.10000000 -0.80000000 0.005984
0.40000000 0.20000000 -0.50000000 0.005984
0.40000000 0.35000000 -0.55000000 0.005984
0.40000000 0.45000000 -0.60000000 0.005984
0.40000000 0.55000000 0.55000000 0.005984
0.45000000 -0.15000000 0.75000000 0.005984
0.45000000 -0.15000000 0.85000000 0.005984
0.45000000 -0.25000000 0.60000000 0.005984
0.45000000 -0.35000000 0.55000000 0.005984
0.45000000 -0.40000000 0.75000000 0.005984
0.45000000 -0.45000000 -0.55000000 0.005984
0.45000000 -0.60000000 -0.50000000 0.005984
0.45000000 0.00000000 -0.75000000 0.005984
0.45000000 0.00000000 -0.85000000 0.005984
0.45000000 0.05000000 -0.55000000 0.005984
0.45000000 0.05000000 -0.70000000 0.005984
0.45000000 0.10000000 -0.55000000 0.005984
0.45000000 0.10000000 -0.65000000 0.005984
0.45000000 0.10000000 -0.80000000 0.005984
0.45000000 0.15000000 0.80000000 0.005984
0.45000000 0.20000000 -0.75000000 0.005984
0.45000000 0.25000000 -0.65000000 0.005984
0.45000000 0.30000000 -0.70000000 0.005984
0.45000000 0.55000000 -0.60000000 0.005984
0.45000000 0.55000000 0.50000000 0.005984
0.50000000 -0.10000000 0.65000000 0.005984
0.50000000 -0.35000000 -0.60000000 0.005984
0.50000000 -0.40000000 0.60000000 0.005984
0.50000000 0.00000000 0.50000000 0.005984
0.50000000 0.30000000 -0.75000000 0.005984
0.50000000 0.50000000 0.65000000 0.005984
0.55000000 -0.05000000 -0.70000000 0.005984
0.55000000 -0.10000000 -0.70000000 0.005984
0.55000000 -0.15000000 -0.55000000 0.005984
0.55000000 -0.25000000 0.60000000 0.005984
0.55000000 -0.35000000 -0.55000000 0.005984
0.55000000 -0.35000000 -0.65000000 0.005984
0.55000000 -0.45000000 0.65000000 0.005984
0.55000000 -0.80000000 0.25000000 0.005984
0.55000000 0.00000000 -0.60000000 0.005984
0.55000000 0.05000000 -0.80000000 0.005984
0.55000000 0.10000000 -0.50000000 0.005984
0.55000000 0.10000000 -0.65000000 0.005984
0.55000000 0.20000000 -0.70000000 0.005984
0.55000000 0.35000000 -0.60000000 0.005984
0.55000000 0.40000000 -0.70000000 0.005984
0.60000000 -0.05000000 -0.60000000 0.005984
0.60000000 -0.10000000 0.55000000 0.005984
0.60000000 -0.15000000 0.70000000 0.005984
0.60000000 -0.20000000 -0.60000000 0.005984
0.60000000 0.00000000 -0.50000000 0.005984
0.60000000 0.10000000 -0.70000000 0.005984
0.60000000 0.20000000 -0.70000000 0.005984
0.60000000 0.25000000 0.50000000 0.005984
0.60000000 0.25000000 0.60000000 0.005984
0.60000000 0.40000000 0.55000000 0.005984
0.60000000 0.40000000 0.65000000 0.005984
0.65000000 -0.40000000 -0.55000000 0.005984
0.65000000 0.15000000 0.65000000 0.005984
0.65000000 0.20000000 0.50000000 0.005984
0.65000000 0.45000000 -0.50000000 0.005984
0.65000000 0.50000000 0.55000000 0.005984
0.70000000 0.10000000 0.60000000 0.005984
0.70000000 0.20000000 0.50000000 0.005984
0.70000000 0.20000000 0.55000000 0.005984
0.70000000 0.35000000 -0.50000000 0.005984
0.70000000 0.40000000 -0.45000000 0.005984
0.70000000 0.40000000 -0.50000000 0.005984
0.75000000 -0.10000000 -0.55000000 0.005984
0.75000000 -0.15000000 0.50000000 0.005984
0.80000000 -0.10000000 0.50000000 0.005984
0.80000000 -0.20000000 -0.50000000 0.005984
0.80000000 -0.25000000 0.45000000 0.005984
0.80000000 0.00000000 -0.50000000 0.005984
0.80000000 0.10000000 0.55000000 0.005984
0.85000000 0.20000000 -0.45000000 0.005984
0.85000000 0.25000000 0.45000000 0.005984
0.95000000 0.00000000 0.30000000 0.005984
-0.05000000 -0.05000000 -0.75000000 0.006109
-0.05000000 -0.25000000 0.45000000 0.006109
-0.05000000 -0.30000000 -0.70000000 0.006109
-0.05000000 -0.50000000 -0.80000000 0.006109
-0.05000000 0.10000000 -0.65000000 0.006109
-0.05000000 0.35000000 -0.75000000 0.006109
-0.05000000 0.45000000 -0.70000000 0.006109
-0.05000000 0.55000000 -0.55000000 0.006109
-0.05000000 0.55000000 -0.80000000 0.006109
-0.05000000 0.60000000 0.45000000 0.006109
-0.05000000 0.60000000 0.50000000 0.006109
-0.05000000 0.65000000 -0.65000000 0.006109
-0.05000000 0.85000000 0.45000000 0.006109
-0.10000000 -0.15000000 -0.70000000 0.006109
-0.10000000 -0.25000000 -0.75000000 0.006109
-0.10000000 -0.30000000 -0.70000000 0.006109
-0.10000000 -0.40000000 -0.55000000 0.006109
-0.10000000 -0.40000000 -0.60000000 0.006109
-0.10000000 -0.40000000 -0.75000000 0.006109
-0.10000000 -0.50000000 -0.55000000 0.006109
-0.10000000 0.10000000 -0.45000000 0.006109
-0.10000000 0.25000000 -0.70000000 0.006109
-0.10000000 0.35000000 -0.75000000 0.006109
-0.10000000 0.50000000 -0.60000000 0.006109
-0.10000000 0.55000000 0.45000000 0.006109
-0.10000000 0.60000000 0.45000000 0.006109
-0.15000000 -0.20000000 -0.90000000 0.006109
-0.15000000 -0.40000000 -0.65000000 0.006109
-0.15000000 -0.45000000 -0.65000000 0.006109
-0.15000000 -0.55000000 -0.55000000 0.006109
-0.15000000 -0.55000000 -0.70000000 0.006109
-0.15000000 0.05000000 -0.60000000 0.006109
-0.15000000 0.25000000 -0.80000000 0.006109
-0.15000000 0.60000000 -0.55000000 0.006109
-0.15000000 0.60000000 0.50000000 0.006109
-0.20000000 -0.05000000 -0.65000000 0.006109
-0.20000000 -0.10000000 -0.70000000 0.006109
-0.20000000 -0.15000000 0.55000000 0.006109
-0.20000000 -0.25000000 -0.45000000 0.006109
-0.20000000 -0.30000000 0.45000000 0.006109
-0.20000000 -0.35000000 -0.90000000 0.006109
-0.20000000 -0.40000000 -0.60000000 0.006109
-0.20000000 -0.65000000 -0.50000000 0.006109
-0.20000000 -0.75000000 -0.50000000 0.006109
-0.20000000 -0.85000000 -0.45000000 0.006109
-0.20000000 0.00000000 -0.65000000 0.006109
-0.20000000 0.05000000 0.45000000 0.006109
-0.20000000 0.35000000 -0.55000000 0.006109
-0.20000000 0.70000000 -0.60000000 0.006109
-0.20000000 0.75000000 -0.55000000 0.006109
-0.20000000 0.80000000 0.50000000 0.006109
-0.25000000 -0.20000000 -0.90000000 0.006109
-0.25000000 -0.45000000 -0.75000000 0.006109
-0.25000000 0.00000000 -0.80000000 0.006109
-0.25000000 0.15000000 -0.60000000 0.006109
-0.25000000 0.20000000 -0.85000000 0.006109
-0.25000000 0.30000000 -0.85000000 0.006109
-0.25000000 0.60000000 -0.65000000 0.006109
-0.25000000 0.65000000 -0.65000000 0.006109
