//X Y Z Consensus 
-0.15000000 0.85000000 -0.55000000 0.170284
0.60000000 0.90000000 0.20000000 0.170322
-0.45000000 -0.05000000 -0.60000000 0.170346
0.55000000 -0.50000000 0.45000000 0.170349
-0.40000000 0.05000000 -0.60000000 0.170351
-0.20000000 0.45000000 -0.60000000 0.170371
0.20000000 0.40000000 -0.60000000 0.170374
-0.35000000 0.20000000 -0.60000000 0.170414
0.20000000 -0.70000000 -0.60000000 0.170416
-0.90000000 0.45000000 0.40000000 0.170419
0.65000000 -0.60000000 0.40000000 0.170420
1.00000000 0.50000000 0.25000000 0.170446
-0.50000000 -0.30000000 -0.60000000 0.170467
0.35000000 -0.10000000 -0.60000000 0.170472
-0.50000000 -0.20000000 -0.60000000 0.170482
0.50000000 0.65000000 0.40000000 0.170498
-0.40000000 -0.55000000 -0.60000000 0.170526
0.75000000 0.15000000 -0.55000000 0.170537
-0.25000000 0.40000000 -0.60000000 0.170551
0.30000000 0.15000000 -0.60000000 0.170553
0.90000000 -0.75000000 0.15000000 0.170588
0.60000000 -0.55000000 -0.55000000 0.170590
0.00000000 0.50000000 -0.60000000 0.170591
0.95000000 0.65000000 0.10000000 0.170592
0.25000000 0.75000000 -0.55000000 0.170616
0.90000000 0.35000000 0.35000000 0.170619
-0.50000000 -0.25000000 -0.60000000 0.170632
-0.05000000 0.50000000 -0.60000000 0.170643
-0.80000000 0.30000000 0.45000000 0.170670
0.90000000 -0.45000000 0.35000000 0.170707
0.40000000 0.80000000 -0.50000000 0.170710
0.05000000 0.85000000 -0.55000000 0.170711
-0.75000000 -0.90000000 0.30000000 0.170711
-0.35000000 0.15000000 -0.60000000 0.170714
-0.45000000 -0.45000000 -0.60000000 0.170720
0.65000000 0.35000000 -0.55000000 0.170721
0.30000000 0.10000000 -0.60000000 0.170756
0.55000000 -0.90000000 0.35000000 0.170776
-0.50000000 0.95000000 -0.45000000 0.170779
0.35000000 -0.40000000 -0.60000000 0.170816
-0.85000000 -0.95000000 0.20000000 0.170837
-0.40000000 0.00000000 -0.60000000 0.170850
-0.30000000 -0.70000000 -0.60000000 0.170851
0.35000000 -0.15000000 -0.60000000 0.170892
-0.65000000 0.50000000 -0.55000000 0.170894
0.75000000 0.35000000 0.40000000 0.170923
-0.30000000 0.30000000 -0.60000000 0.170936
0.85000000 -0.30000000 0.40000000 0.170942
0.25000000 0.30000000 -0.60000000 0.170956
0.40000000 0.95000000 -0.45000000 0.170957
0.30000000 0.05000000 -0.60000000 0.170959
0.05000000 -1.00000000 -0.60000000 0.170965
-0.45000000 -0.10000000 -0.60000000 0.170970
-0.35000000 0.10000000 -0.60000000 0.170990
-0.50000000 -0.85000000 -0.55000000 0.171021
-0.55000000 0.95000000 0.30000000 0.171028
0.55000000 0.60000000 0.40000000 0.171034
0.75000000 -0.95000000 0.15000000 0.171062
0.90000000 0.70000000 0.05000000 0.171067
0.80000000 -0.80000000 0.20000000 0.171084
0.85000000 0.75000000 -0.15000000 0.171093
-1.00000000 -0.75000000 -0.40000000 0.171108
-0.90000000 -0.60000000 -0.50000000 0.171112
-0.15000000 -1.00000000 -0.60000000 0.171141
0.45000000 0.50000000 0.45000000 0.171160
0.70000000 0.50000000 -0.50000000 0.171173
0.30000000 0.00000000 -0.60000000 0.171221
0.10000000 -0.85000000 -0.60000000 0.171242
0.50000000 -0.80000000 0.40000000 0.171277
-0.30000000 0.70000000 0.45000000 0.171283
0.40000000 0.55000000 0.45000000 0.171285
0.35000000 -0.20000000 -0.60000000 0.171286
-0.95000000 0.65000000 -0.40000000 0.171310
-0.25000000 0.95000000 0.40000000 0.171312
-0.35000000 0.05000000 -0.60000000 0.171319
0.60000000 -0.40000000 0.45000000 0.171333
-0.30000000 0.25000000 -0.60000000 0.171372
0.65000000 -0.95000000 -0.40000000 0.171401
-0.25000000 0.80000000 -0.55000000 0.171406
-0.80000000 0.90000000 0.10000000 0.171424
-0.40000000 -0.05000000 -0.60000000 0.171425
0.35000000 -1.00000000 -0.55000000 0.171430
-0.30000000 0.90000000 0.40000000 0.171434
-1.00000000 -0.40000000 -0.55000000 0.171452
0.65000000 0.15000000 0.45000000 0.171454
0.35000000 -0.35000000 -0.60000000 0.171468
0.10000000 0.45000000 -0.60000000 0.171488
-0.20000000 -0.85000000 -0.60000000 0.171502
0.75000000 0.85000000 0.00000000 0.171502
-0.70000000 0.45000000 -0.55000000 0.171510
0.25000000 0.25000000 -0.60000000 0.171515
0.25000000 0.85000000 0.40000000 0.171537
-0.95000000 0.75000000 -0.30000000 0.171543
0.25000000 -0.60000000 -0.60000000 0.171551
0.30000000 -0.05000000 -0.60000000 0.171572
0.35000000 -0.25000000 -0.60000000 0.171580
0.75000000 -0.85000000 -0.35000000 0.171584
-0.45000000 -0.15000000 -0.60000000 0.171584
-0.30000000 0.20000000 -0.60000000 0.171584
-0.15000000 0.45000000 -0.60000000 0.171598
-0.60000000 -0.70000000 -0.55000000 0.171598
0.60000000 -0.90000000 -0.45000000 0.171600
0.05000000 -0.95000000 -0.60000000 0.171626
0.80000000 0.45000000 0.35000000 0.171655
-0.25000000 0.35000000 -0.60000000 0.171667
0.90000000 0.25000000 -0.50000000 0.171679
0.35000000 -0.30000000 -0.60000000 0.171679
-0.80000000 0.95000000 -0.15000000 0.171701
-0.30000000 0.15000000 -0.60000000 0.171711
0.20000000 0.35000000 -0.60000000 0.171731
-0.35000000 0.00000000 -0.60000000 0.171746
-0.40000000 -0.90000000 0.45000000 0.171750
0.80000000 -0.95000000 0.05000000 0.171751
-0.90000000 -0.75000000 0.30000000 0.171760
0.25000000 0.20000000 -0.60000000 0.171774
-0.75000000 0.95000000 -0.25000000 0.171780
-0.15000000 -0.95000000 -0.60000000 0.171802
0.30000000 -0.50000000 -0.60000000 0.171806
0.90000000 0.60000000 0.20000000 0.171820
-0.30000000 0.10000000 -0.60000000 0.171856
0.75000000 0.80000000 -0.25000000 0.171864
0.70000000 0.25000000 -0.55000000 0.171882
0.25000000 0.15000000 -0.60000000 0.171882
0.75000000 -0.25000000 -0.55000000 0.171894
-0.45000000 -0.40000000 -0.60000000 0.171953
0.25000000 0.10000000 -0.60000000 0.171955
0.15000000 0.40000000 -0.60000000 0.171970
-0.20000000 0.40000000 -0.60000000 0.171975
0.15000000 -0.75000000 -0.60000000 0.171993
0.95000000 0.00000000 0.40000000 0.172014
-0.90000000 0.85000000 -0.15000000 0.172016
0.30000000 -0.10000000 -0.60000000 0.172017
0.75000000 -0.45000000 0.40000000 0.172036
-0.85000000 0.90000000 -0.10000000 0.172038
-0.85000000 0.80000000 -0.30000000 0.172063
-0.40000000 -0.10000000 -0.60000000 0.172075
0.25000000 0.05000000 -0.60000000 0.172077
-0.30000000 0.05000000 -0.60000000 0.172092
-0.95000000 -0.85000000 0.20000000 0.172100
-0.75000000 -1.00000000 -0.40000000 0.172104
-0.35000000 -0.60000000 -0.60000000 0.172114
-0.45000000 -1.00000000 -0.55000000 0.172118
0.80000000 -0.55000000 0.35000000 0.172130
1.00000000 -0.70000000 0.15000000 0.172130
0.80000000 -1.00000000 -0.15000000 0.172133
-0.45000000 -0.20000000 -0.60000000 0.172138
0.95000000 -0.10000000 0.40000000 0.172159
1.00000000 0.60000000 0.15000000 0.172159
0.80000000 0.75000000 -0.25000000 0.172163
-0.55000000 0.75000000 -0.50000000 0.172171
-0.35000000 0.95000000 -0.50000000 0.172215
0.65000000 -0.85000000 0.30000000 0.172230
-0.25000000 0.30000000 -0.60000000 0.172239
-0.35000000 -0.05000000 -0.60000000 0.172295
0.25000000 0.00000000 -0.60000000 0.172299
0.15000000 0.80000000 -0.55000000 0.172310
0.95000000 -0.80000000 -0.10000000 0.172318
-0.25000000 -0.75000000 -0.60000000 0.172338
-0.70000000 0.85000000 0.25000000 0.172341
-0.45000000 0.60000000 0.45000000 0.172341
0.05000000 0.45000000 -0.60000000 0.172359
0.05000000 0.75000000 0.45000000 0.172367
0.80000000 -0.90000000 0.10000000 0.172383
0.70000000 -1.00000000 0.20000000 0.172388
0.90000000 0.10000000 0.40000000 0.172389
-0.10000000 0.45000000 -0.60000000 0.172397
0.65000000 1.00000000 0.05000000 0.172417
-0.90000000 -0.35000000 0.45000000 0.172423
-0.25000000 0.25000000 -0.60000000 0.172462
-0.30000000 0.00000000 -0.60000000 0.172462
0.20000000 0.30000000 -0.60000000 0.172467
-0.90000000 0.30000000 -0.55000000 0.172484
-0.25000000 0.15000000 -0.60000000 0.172495
-0.25000000 0.20000000 -0.60000000 0.172502
0.90000000 -0.70000000 0.20000000 0.172503
0.40000000 -0.70000000 0.45000000 0.172509
-0.80000000 0.70000000 0.30000000 0.172512
-0.75000000 0.40000000 -0.55000000 0.172526
0.30000000 -0.15000000 -0.60000000 0.172535
0.10000000 1.00000000 0.40000000 0.172535
-0.25000000 0.10000000 -0.60000000 0.172538
-0.45000000 -0.25000000 -0.60000000 0.172557
-0.40000000 -0.50000000 -0.60000000 0.172578
-0.45000000 -0.35000000 -0.60000000 0.172585
0.90000000 -0.35000000 -0.50000000 0.172623
-0.90000000 -0.55000000 0.40000000 0.172632
-0.10000000 0.85000000 -0.55000000 0.172642
0.95000000 -0.75000000 0.10000000 0.172642
0.80000000 0.60000000 -0.40000000 0.172643
0.60000000 0.95000000 -0.30000000 0.172649
0.25000000 -0.05000000 -0.60000000 0.172652
1.00000000 0.65000000 -0.20000000 0.172660
-0.90000000 -0.95000000 0.15000000 0.172662
0.70000000 -0.95000000 -0.35000000 0.172665
0.95000000 0.20000000 -0.50000000 0.172680
-0.25000000 0.05000000 -0.60000000 0.172702
-0.45000000 -0.80000000 0.45000000 0.172723
-0.45000000 -0.30000000 -0.60000000 0.172744
0.85000000 0.75000000 0.00000000 0.172758
-0.80000000 0.65000000 -0.45000000 0.172762
0.95000000 -0.80000000 -0.05000000 0.172773
-0.40000000 -0.15000000 -0.60000000 0.172776
0.20000000 0.25000000 -0.60000000 0.172783
0.00000000 0.45000000 -0.60000000 0.172783
-0.05000000 0.45000000 -0.60000000 0.172791
0.20000000 0.10000000 -0.60000000 0.172796
0.45000000 0.75000000 -0.50000000 0.172803
-0.15000000 0.75000000 0.45000000 0.172804
0.45000000 -0.75000000 -0.55000000 0.172810
0.20000000 0.15000000 -0.60000000 0.172820
0.90000000 -0.20000000 0.40000000 0.172824
-0.90000000 0.75000000 0.20000000 0.172839
0.20000000 0.20000000 -0.60000000 0.172852
0.75000000 0.65000000 -0.40000000 0.172855
0.20000000 0.05000000 -0.60000000 0.172858
0.00000000 0.85000000 -0.55000000 0.172859
0.05000000 -0.90000000 -0.60000000 0.172859
-0.20000000 0.35000000 -0.60000000 0.172859
-0.80000000 0.50000000 0.40000000 0.172864
0.25000000 0.95000000 -0.50000000 0.172878
0.80000000 -0.85000000 0.15000000 0.172886
0.95000000 -0.05000000 0.40000000 0.172916
0.65000000 -0.25000000 0.45000000 0.172923
-0.85000000 -0.45000000 -0.55000000 0.172932
-0.55000000 0.70000000 0.40000000 0.172962
-0.35000000 -0.10000000 -0.60000000 0.172962
-0.30000000 -0.05000000 -0.60000000 0.172986
-0.15000000 0.40000000 -0.60000000 0.173011
-1.00000000 0.20000000 0.45000000 0.173026
-0.25000000 0.00000000 -0.60000000 0.173026
-0.15000000 -0.90000000 -0.60000000 0.173035
0.15000000 0.35000000 -0.60000000 0.173038
0.20000000 0.00000000 -0.60000000 0.173056
-0.20000000 0.10000000 -0.60000000 0.173067
0.10000000 0.40000000 -0.60000000 0.173077
0.30000000 -0.20000000 -0.60000000 0.173080
-0.20000000 0.15000000 -0.60000000 0.173100
0.20000000 -0.65000000 -0.60000000 0.173112
-0.40000000 0.70000000 -0.55000000 0.173112
0.85000000 0.30000000 -0.50000000 0.173117
0.80000000 -1.00000000 0.00000000 0.173120
0.25000000 -0.10000000 -0.60000000 0.173137
0.95000000 0.55000000 -0.35000000 0.173140
0.30000000 -0.45000000 -0.60000000 0.173141
0.30000000 -0.85000000 0.45000000 0.173159
0.55000000 1.00000000 0.20000000 0.173165
0.55000000 0.35000000 0.45000000 0.173167
-0.20000000 0.05000000 -0.60000000 0.173174
-0.85000000 0.90000000 -0.05000000 0.173182
-0.20000000 0.20000000 -0.60000000 0.173209
-0.20000000 0.30000000 -0.60000000 0.173235
0.70000000 0.70000000 -0.40000000 0.173270
0.00000000 -1.00000000 -0.60000000 0.173293
-0.20000000 0.25000000 -0.60000000 0.173297
-0.85000000 0.25000000 0.45000000 0.173298
-0.85000000 0.85000000 0.10000000 0.173300
-0.95000000 -0.90000000 0.15000000 0.173317
0.15000000 0.10000000 -0.60000000 0.173363
-0.10000000 -1.00000000 -0.60000000 0.173382
0.15000000 0.05000000 -0.60000000 0.173387
-0.85000000 -0.90000000 -0.35000000 0.173390
-0.90000000 -0.85000000 -0.35000000 0.173404
0.20000000 -0.05000000 -0.60000000 0.173414
0.10000000 -0.80000000 -0.60000000 0.173416
0.95000000 -0.30000000 -0.50000000 0.173432
-0.95000000 -0.40000000 -0.55000000 0.173447
0.15000000 0.15000000 -0.60000000 0.173455
-0.20000000 0.00000000 -0.60000000 0.173460
-0.15000000 0.10000000 -0.60000000 0.173463
-0.70000000 -0.50000000 0.45000000 0.173473
-0.40000000 -0.20000000 -0.60000000 0.173478
-0.70000000 -0.70000000 0.40000000 0.173487
0.65000000 0.75000000 -0.40000000 0.173490
-0.05000000 0.85000000 -0.55000000 0.173504
-0.20000000 1.00000000 0.40000000 0.173513
0.60000000 0.25000000 0.45000000 0.173521
-0.25000000 -0.05000000 -0.60000000 0.173527
-0.15000000 0.05000000 -0.60000000 0.173528
0.55000000 0.95000000 -0.35000000 0.173529
-0.35000000 0.85000000 0.40000000 0.173536
0.15000000 0.30000000 -0.60000000 0.173537
-0.30000000 -0.65000000 -0.60000000 0.173550
-0.15000000 0.15000000 -0.60000000 0.173554
0.35000000 -0.95000000 -0.55000000 0.173555
0.15000000 0.00000000 -0.60000000 0.173571
0.95000000 0.60000000 -0.30000000 0.173585
0.30000000 -0.25000000 -0.60000000 0.173585
0.15000000 0.20000000 -0.60000000 0.173590
0.65000000 -0.45000000 -0.55000000 0.173610
-0.75000000 -0.45000000 0.45000000 0.173626
-0.90000000 -0.70000000 -0.45000000 0.173630
0.95000000 -0.65000000 -0.35000000 0.173639
-0.30000000 -0.10000000 -0.60000000 0.173663
0.15000000 0.25000000 -0.60000000 0.173663
-0.20000000 -0.80000000 -0.60000000 0.173677
0.25000000 -0.55000000 -0.60000000 0.173679
-0.10000000 0.40000000 -0.60000000 0.173696
0.80000000 0.55000000 0.30000000 0.173697
0.85000000 0.55000000 -0.40000000 0.173719
0.10000000 0.10000000 -0.60000000 0.173720
0.10000000 0.05000000 -0.60000000 0.173722
-0.35000000 -0.15000000 -0.60000000 0.173725
-0.15000000 0.35000000 -0.60000000 0.173731
0.25000000 -0.15000000 -0.60000000 0.173735
-0.15000000 0.20000000 -0.60000000 0.173736
-0.10000000 0.10000000 -0.60000000 0.173743
0.05000000 0.40000000 -0.60000000 0.173763
-0.10000000 0.05000000 -0.60000000 0.173775
-0.15000000 0.00000000 -0.60000000 0.173782
0.60000000 -0.80000000 0.35000000 0.173803
0.10000000 0.15000000 -0.60000000 0.173856
0.30000000 -0.40000000 -0.60000000 0.173864
-0.10000000 0.15000000 -0.60000000 0.173873
0.60000000 0.80000000 -0.40000000 0.173882
0.00000000 -0.95000000 -0.60000000 0.173891
0.10000000 0.00000000 -0.60000000 0.173902
0.05000000 0.05000000 -0.60000000 0.173908
-0.40000000 -0.45000000 -0.60000000 0.173909
-0.05000000 0.10000000 -0.60000000 0.173912
0.05000000 0.10000000 -0.60000000 0.173914
-0.15000000 0.25000000 -0.60000000 0.173917
-0.05000000 0.05000000 -0.60000000 0.173922
0.10000000 0.35000000 -0.60000000 0.173925
0.25000000 -1.00000000 0.45000000 0.173932
0.20000000 -0.10000000 -0.60000000 0.173934
0.15000000 -0.05000000 -0.60000000 0.173938
-0.20000000 -0.05000000 -0.60000000 0.173941
0.80000000 0.80000000 -0.10000000 0.173947
0.30000000 -0.30000000 -0.60000000 0.173960
0.00000000 0.05000000 -0.60000000 0.173969
-0.15000000 0.30000000 -0.60000000 0.173969
0.00000000 0.10000000 -0.60000000 0.173972
-0.75000000 -0.65000000 0.40000000 0.173975
0.70000000 -0.35000000 -0.55000000 0.173976
0.85000000 -0.60000000 0.30000000 0.173978
-0.65000000 -0.55000000 0.45000000 0.173980
-0.10000000 -0.95000000 -0.60000000 0.173981
0.85000000 0.50000000 0.30000000 0.173999
-0.10000000 0.00000000 -0.60000000 0.174005
0.65000000 0.10000000 0.45000000 0.174016
0.65000000 0.55000000 -0.50000000 0.174030
-0.90000000 0.70000000 0.25000000 0.174034
-0.05000000 0.40000000 -0.60000000 0.174050
0.50000000 -0.55000000 0.45000000 0.174059
0.10000000 0.20000000 -0.60000000 0.174061
-0.05000000 0.15000000 -0.60000000 0.174067
0.05000000 0.15000000 -0.60000000 0.174073
0.00000000 0.40000000 -0.60000000 0.174077
0.05000000 0.00000000 -0.60000000 0.174092
0.30000000 -0.35000000 -0.60000000 0.174094
-0.05000000 -1.00000000 -0.60000000 0.174102
-0.10000000 0.20000000 -0.60000000 0.174104
-0.40000000 -0.25000000 -0.60000000 0.174111
-0.05000000 0.00000000 -0.60000000 0.174131
0.00000000 0.15000000 -0.60000000 0.174137
-0.85000000 0.75000000 -0.35000000 0.174154
0.00000000 0.00000000 -0.60000000 0.174163
-0.25000000 -0.10000000 -0.60000000 0.174206
0.75000000 0.10000000 -0.55000000 0.174213
-0.75000000 0.80000000 0.25000000 0.174227
0.10000000 0.25000000 -0.60000000 0.174236
-0.15000000 -0.05000000 -0.60000000 0.174244
-0.35000000 -0.55000000 -0.60000000 0.174244
0.10000000 0.30000000 -0.60000000 0.174246
-0.45000000 -0.95000000 -0.55000000 0.174265
0.00000000 0.75000000 0.45000000 0.174275
0.10000000 -0.05000000 -0.60000000 0.174281
-0.50000000 0.55000000 0.45000000 0.174311
-0.10000000 0.35000000 -0.60000000 0.174316
0.85000000 -0.40000000 -0.50000000 0.174317
0.05000000 0.20000000 -0.60000000 0.174320
0.95000000 0.30000000 0.35000000 0.174321
-0.05000000 0.20000000 -0.60000000 0.174325
-0.95000000 0.20000000 0.45000000 0.174330
0.75000000 0.50000000 0.35000000 0.174331
0.25000000 0.65000000 0.45000000 0.174335
-0.10000000 0.25000000 -0.60000000 0.174344
0.95000000 -0.40000000 0.35000000 0.174398
0.00000000 0.20000000 -0.60000000 0.174400
0.25000000 -0.20000000 -0.60000000 0.174404
-0.80000000 0.35000000 -0.55000000 0.174409
-0.75000000 0.65000000 0.35000000 0.174439
0.40000000 0.85000000 0.35000000 0.174441
-0.10000000 -0.05000000 -0.60000000 0.174447
-1.00000000 0.45000000 -0.50000000 0.174448
0.65000000 -1.00000000 0.25000000 0.174451
0.80000000 0.80000000 -0.05000000 0.174458
0.05000000 0.35000000 -0.60000000 0.174458
-0.10000000 0.30000000 -0.60000000 0.174468
-0.30000000 -0.15000000 -0.60000000 0.174469
-0.95000000 -1.00000000 -0.20000000 0.174469
-0.55000000 -0.75000000 -0.55000000 0.174470
1.00000000 -0.65000000 0.20000000 0.174476
0.15000000 -0.70000000 -0.60000000 0.174481
0.05000000 -0.05000000 -0.60000000 0.174484
0.15000000 -0.10000000 -0.60000000 0.174489
-0.10000000 0.75000000 0.45000000 0.174494
0.05000000 -0.85000000 -0.60000000 0.174503
0.70000000 0.85000000 -0.25000000 0.174536
-0.35000000 -0.20000000 -0.60000000 0.174539
-0.05000000 -0.05000000 -0.60000000 0.174556
0.75000000 0.60000000 0.30000000 0.174557
0.05000000 0.25000000 -0.60000000 0.174558
0.70000000 -0.60000000 -0.50000000 0.174562
0.00000000 -0.05000000 -0.60000000 0.174571
0.60000000 -0.65000000 0.40000000 0.174575
-0.40000000 -0.30000000 -0.60000000 0.174586
0.30000000 0.80000000 0.40000000 0.174591
-0.05000000 0.25000000 -0.60000000 0.174594
0.20000000 -0.15000000 -0.60000000 0.174598
-0.40000000 -0.40000000 -0.60000000 0.174609
-0.20000000 -0.10000000 -0.60000000 0.174615
-0.05000000 0.35000000 -0.60000000 0.174632
0.05000000 0.30000000 -0.60000000 0.174659
0.00000000 0.25000000 -0.60000000 0.174669
-0.80000000 -0.40000000 0.45000000 0.174670
-0.05000000 -0.95000000 -0.60000000 0.174679
-0.15000000 -0.85000000 -0.60000000 0.174680
0.80000000 -0.65000000 0.30000000 0.174681
0.00000000 0.35000000 -0.60000000 0.174684
0.30000000 1.00000000 0.35000000 0.174689
0.30000000 0.70000000 -0.55000000 0.174706
0.55000000 -0.60000000 -0.55000000 0.174708
-1.00000000 -0.95000000 -0.20000000 0.174731
0.60000000 -0.95000000 0.30000000 0.174744
-0.05000000 0.30000000 -0.60000000 0.174750
0.55000000 0.80000000 0.30000000 0.174765
0.95000000 -0.70000000 -0.30000000 0.174767
0.50000000 0.70000000 -0.50000000 0.174773
-0.40000000 -0.35000000 -0.60000000 0.174792
0.50000000 -0.90000000 -0.50000000 0.174806
0.00000000 0.30000000 -0.60000000 0.174818
-0.25000000 -0.70000000 -0.60000000 0.174827
0.65000000 -0.80000000 -0.45000000 0.174830
-0.60000000 0.70000000 -0.50000000 0.174848
-0.65000000 -0.75000000 0.40000000 0.174856
0.10000000 -0.10000000 -0.60000000 0.174859
-0.95000000 -0.95000000 0.10000000 0.174863
-0.15000000 -0.10000000 -0.60000000 0.174910
-0.60000000 -0.60000000 0.45000000 0.174922
-0.80000000 0.95000000 0.00000000 0.174963
-0.05000000 0.75000000 0.45000000 0.174985
-0.75000000 -0.70000000 -0.50000000 0.174993
0.80000000 0.25000000 0.40000000 0.174996
1.00000000 -0.75000000 -0.20000000 0.174996
0.00000000 -0.90000000 -0.60000000 0.175005
-0.25000000 -0.15000000 -0.60000000 0.175039
-0.65000000 0.90000000 0.25000000 0.175059
0.25000000 -0.25000000 -0.60000000 0.175082
0.05000000 -0.10000000 -0.60000000 0.175086
-0.10000000 -0.90000000 -0.60000000 0.175095
-0.10000000 -0.10000000 -0.60000000 0.175102
-0.55000000 -0.90000000 0.40000000 0.175115
0.60000000 0.40000000 -0.55000000 0.175123
0.25000000 -0.50000000 -0.60000000 0.175128
0.90000000 -0.80000000 -0.20000000 0.175147
0.65000000 -0.20000000 0.45000000 0.175178
0.15000000 0.70000000 0.45000000 0.175189
0.00000000 -0.10000000 -0.60000000 0.175193
-0.05000000 -0.10000000 -0.60000000 0.175196
0.85000000 0.45000000 -0.45000000 0.175199
0.15000000 -0.15000000 -0.60000000 0.175205
-0.90000000 0.80000000 -0.25000000 0.175206
0.60000000 0.75000000 0.30000000 0.175232
1.00000000 0.55000000 0.20000000 0.175255
0.20000000 -0.60000000 -0.60000000 0.175268
0.75000000 -0.20000000 -0.55000000 0.175279
0.45000000 0.80000000 0.35000000 0.175301
-0.35000000 -0.25000000 -0.60000000 0.175339
-0.30000000 -0.20000000 -0.60000000 0.175364
0.20000000 -0.20000000 -0.60000000 0.175366
-0.55000000 0.50000000 0.45000000 0.175366
-0.95000000 0.70000000 -0.35000000 0.175393
0.85000000 -0.85000000 -0.20000000 0.175399
0.85000000 -0.65000000 -0.40000000 0.175403
0.50000000 0.85000000 0.30000000 0.175405
0.70000000 0.65000000 0.30000000 0.175425
0.35000000 -0.75000000 0.45000000 0.175429
0.85000000 0.70000000 -0.25000000 0.175440
-0.20000000 -0.15000000 -0.60000000 0.175463
0.75000000 -0.60000000 0.35000000 0.175492
0.55000000 0.85000000 -0.40000000 0.175516
0.25000000 -0.95000000 0.45000000 0.175582
0.10000000 -0.75000000 -0.60000000 0.175612
0.10000000 -0.15000000 -0.60000000 0.175618
-1.00000000 -0.30000000 0.45000000 0.175626
0.75000000 0.85000000 -0.10000000 0.175643
0.65000000 0.70000000 0.30000000 0.175656
0.60000000 0.60000000 -0.50000000 0.175672
-0.85000000 0.50000000 -0.50000000 0.175672
0.35000000 0.90000000 0.35000000 0.175676
0.25000000 -0.30000000 -0.60000000 0.175683
-0.35000000 -0.50000000 -0.60000000 0.175684
-0.30000000 -0.60000000 -0.60000000 0.175704
0.60000000 -0.35000000 0.45000000 0.175723
-0.90000000 0.85000000 0.00000000 0.175739
-0.60000000 1.00000000 0.25000000 0.175746
-0.05000000 -0.90000000 -0.60000000 0.175752
-0.60000000 0.45000000 0.45000000 0.175759
-0.15000000 -0.15000000 -0.60000000 0.175762
-0.35000000 0.65000000 0.45000000 0.175795
0.70000000 0.40000000 0.40000000 0.175804
-0.65000000 0.40000000 0.45000000 0.175847
0.65000000 0.05000000 0.45000000 0.175855
0.80000000 -0.35000000 0.40000000 0.175859
-0.20000000 -0.75000000 -0.60000000 0.175873
0.05000000 -0.15000000 -0.60000000 0.175878
0.55000000 0.65000000 -0.50000000 0.175880
-0.70000000 -0.90000000 -0.45000000 0.175895
-1.00000000 -1.00000000 -0.15000000 0.175935
0.25000000 -0.45000000 -0.60000000 0.175950
-0.10000000 -0.15000000 -0.60000000 0.175950
-0.90000000 -1.00000000 -0.25000000 0.175953
-0.25000000 -0.20000000 -0.60000000 0.175990
0.00000000 -0.15000000 -0.60000000 0.176010
-0.70000000 -0.75000000 -0.50000000 0.176011
1.00000000 0.65000000 0.05000000 0.176019
-0.85000000 -0.85000000 0.25000000 0.176022
-0.05000000 -0.15000000 -0.60000000 0.176032
-0.70000000 0.35000000 0.45000000 0.176034
0.80000000 0.50000000 -0.45000000 0.176035
-0.35000000 -0.30000000 -0.60000000 0.176041
0.15000000 -0.20000000 -0.60000000 0.176051
-0.65000000 0.95000000 -0.35000000 0.176063
-0.25000000 0.70000000 0.45000000 0.176096
0.25000000 -0.35000000 -0.60000000 0.176107
0.75000000 0.85000000 -0.05000000 0.176128
0.75000000 0.80000000 0.10000000 0.176137
0.55000000 -0.45000000 0.45000000 0.176159
-0.55000000 -0.65000000 0.45000000 0.176178
0.20000000 -0.25000000 -0.60000000 0.176181
-0.60000000 0.65000000 0.40000000 0.176222
0.55000000 -0.80000000 -0.50000000 0.176224
0.25000000 -0.40000000 -0.60000000 0.176237
1.00000000 0.35000000 -0.45000000 0.176267
-0.30000000 -0.25000000 -0.60000000 0.176288
-0.45000000 0.65000000 -0.55000000 0.176308
0.85000000 -0.55000000 -0.45000000 0.176309
-0.30000000 0.75000000 -0.55000000 0.176349
0.05000000 -0.80000000 -0.60000000 0.176355
0.80000000 -0.70000000 -0.40000000 0.176368
-0.20000000 0.80000000 -0.55000000 0.176369
0.80000000 0.35000000 -0.50000000 0.176388
0.90000000 0.05000000 0.40000000 0.176394
0.50000000 0.40000000 0.45000000 0.176402
1.00000000 0.15000000 -0.50000000 0.176409
-0.80000000 -0.60000000 0.40000000 0.176448
-0.20000000 -0.20000000 -0.60000000 0.176449
0.90000000 -0.55000000 0.30000000 0.176472
-1.00000000 -0.90000000 -0.25000000 0.176482
-0.35000000 -0.45000000 -0.60000000 0.176483
0.00000000 -0.85000000 -0.60000000 0.176484
0.10000000 -0.20000000 -0.60000000 0.176523
-1.00000000 0.80000000 0.05000000 0.176527
-0.15000000 -0.80000000 -0.60000000 0.176531
-0.35000000 -0.35000000 -0.60000000 0.176544
0.10000000 0.95000000 0.40000000 0.176547
-0.60000000 -0.90000000 -0.50000000 0.176565
-0.10000000 -0.85000000 -0.60000000 0.176573
0.15000000 -0.65000000 -0.60000000 0.176593
-0.80000000 -0.65000000 -0.50000000 0.176606
0.65000000 -0.15000000 0.45000000 0.176660
0.80000000 0.75000000 0.10000000 0.176669
-0.75000000 0.30000000 0.45000000 0.176692
0.90000000 -0.15000000 0.40000000 0.176706
1.00000000 -0.45000000 -0.45000000 0.176716
-0.85000000 -0.35000000 0.45000000 0.176721
-0.35000000 -0.40000000 -0.60000000 0.176731
-0.40000000 -0.85000000 0.45000000 0.176748
-0.15000000 -0.20000000 -0.60000000 0.176767
0.90000000 0.40000000 -0.45000000 0.176800
0.20000000 -0.55000000 -0.60000000 0.176813
-0.90000000 0.20000000 0.45000000 0.176815
0.05000000 -0.20000000 -0.60000000 0.176828
0.85000000 0.75000000 -0.10000000 0.176862
0.75000000 0.05000000 -0.55000000 0.176874
1.00000000 -0.50000000 0.30000000 0.176875
0.85000000 0.15000000 0.40000000 0.176889
-0.35000000 -1.00000000 0.45000000 0.176893
0.90000000 0.45000000 0.30000000 0.176910
-0.25000000 -0.65000000 -0.60000000 0.176936
-0.10000000 -0.20000000 -0.60000000 0.176959
0.70000000 0.90000000 -0.15000000 0.176964
0.20000000 -0.30000000 -0.60000000 0.176966
0.15000000 -0.25000000 -0.60000000 0.176973
-1.00000000 0.25000000 -0.55000000 0.176982
0.00000000 -0.20000000 -0.60000000 0.176992
0.95000000 -0.60000000 0.25000000 0.176993
-0.25000000 -0.25000000 -0.60000000 0.177004
0.70000000 0.55000000 0.35000000 0.177012
1.00000000 -0.25000000 -0.50000000 0.177016
0.65000000 0.00000000 0.45000000 0.177022
-0.95000000 -0.30000000 0.45000000 0.177026
-0.40000000 0.80000000 0.40000000 0.177030
-0.05000000 -0.20000000 -0.60000000 0.177033
-0.90000000 0.55000000 0.35000000 0.177072
0.10000000 0.80000000 -0.55000000 0.177076
0.50000000 0.75000000 0.35000000 0.177087
-0.95000000 -0.75000000 -0.40000000 0.177108
-0.80000000 -1.00000000 -0.35000000 0.177109
0.45000000 -0.60000000 0.45000000 0.177125
0.70000000 0.20000000 -0.55000000 0.177136
-1.00000000 -0.80000000 -0.35000000 0.177155
-0.30000000 -0.30000000 -0.60000000 0.177165
-0.05000000 -0.85000000 -0.60000000 0.177175
0.60000000 0.20000000 0.45000000 0.177180
-0.30000000 -0.55000000 -0.60000000 0.177240
-0.90000000 -0.40000000 -0.55000000 0.177262
0.50000000 0.95000000 0.25000000 0.177268
0.70000000 -0.50000000 0.40000000 0.177299
0.30000000 0.60000000 0.45000000 0.177339
-0.70000000 0.95000000 -0.30000000 0.177361
0.05000000 1.00000000 0.40000000 0.177403
0.85000000 0.75000000 -0.05000000 0.177416
0.40000000 -0.80000000 -0.55000000 0.177430
0.65000000 -0.10000000 0.45000000 0.177435
1.00000000 0.40000000 0.30000000 0.177447
-0.85000000 0.30000000 -0.55000000 0.177466
-0.65000000 0.65000000 -0.50000000 0.177483
-1.00000000 0.75000000 0.15000000 0.177487
0.85000000 -0.25000000 0.40000000 0.177504
0.90000000 -0.50000000 -0.45000000 0.177513
-0.20000000 -0.25000000 -0.60000000 0.177524
0.10000000 -0.25000000 -0.60000000 0.177527
-0.20000000 0.95000000 0.40000000 0.177544
0.65000000 -0.05000000 0.45000000 0.177548
0.20000000 0.75000000 -0.55000000 0.177562
0.65000000 0.30000000 -0.55000000 0.177562
-0.40000000 1.00000000 0.35000000 0.177562
0.80000000 -1.00000000 -0.10000000 0.177591
0.35000000 -0.90000000 -0.55000000 0.177597
0.75000000 -0.15000000 -0.55000000 0.177609
0.10000000 -0.70000000 -0.60000000 0.177613
0.75000000 -0.70000000 0.30000000 0.177620
0.90000000 0.50000000 -0.40000000 0.177623
0.20000000 -0.35000000 -0.60000000 0.177625
-0.80000000 0.85000000 0.15000000 0.177633
0.85000000 -0.85000000 0.05000000 0.177641
0.90000000 -0.80000000 0.05000000 0.177642
-0.75000000 0.85000000 0.20000000 0.177691
-0.65000000 0.85000000 -0.40000000 0.177691
-0.95000000 0.45000000 -0.50000000 0.177693
-0.85000000 -1.00000000 -0.30000000 0.177726
0.20000000 -0.50000000 -0.60000000 0.177749
0.15000000 0.90000000 0.40000000 0.177766
-0.50000000 -0.70000000 0.45000000 0.177776
1.00000000 -0.75000000 0.05000000 0.177785
-0.95000000 0.80000000 -0.20000000 0.177800
0.95000000 0.50000000 0.25000000 0.177810
-0.20000000 -0.70000000 -0.60000000 0.177872
-0.15000000 -0.25000000 -0.60000000 0.177877
0.05000000 -0.25000000 -0.60000000 0.177890
-0.30000000 -0.35000000 -0.60000000 0.177900
0.15000000 -0.30000000 -0.60000000 0.177901
0.80000000 -1.00000000 -0.05000000 0.177913
0.45000000 -0.85000000 0.40000000 0.177918
0.80000000 -0.60000000 -0.45000000 0.177928
0.80000000 -0.45000000 -0.50000000 0.177938
-0.25000000 -0.30000000 -0.60000000 0.178010
0.75000000 0.55000000 -0.45000000 0.178018
0.35000000 0.65000000 -0.55000000 0.178025
-0.80000000 0.95000000 -0.10000000 0.178031
-1.00000000 0.40000000 0.40000000 0.178051
0.20000000 -0.40000000 -0.60000000 0.178052
-0.75000000 -0.95000000 -0.40000000 0.178065
-0.15000000 1.00000000 0.40000000 0.178069
-0.80000000 0.25000000 0.45000000 0.178077
-0.10000000 -0.25000000 -0.60000000 0.178084
0.00000000 -0.25000000 -0.60000000 0.178093
-0.70000000 0.80000000 -0.40000000 0.178100
0.55000000 0.30000000 0.45000000 0.178123
0.20000000 -0.45000000 -0.60000000 0.178131
0.00000000 -0.80000000 -0.60000000 0.178136
-0.05000000 -0.25000000 -0.60000000 0.178155
-0.30000000 -0.50000000 -0.60000000 0.178156
-0.60000000 -0.80000000 0.40000000 0.178179
0.05000000 -0.75000000 -0.60000000 0.178197
0.15000000 -0.60000000 -0.60000000 0.178203
0.40000000 -1.00000000 0.40000000 0.178218
0.35000000 0.75000000 0.40000000 0.178219
-0.10000000 -0.80000000 -0.60000000 0.178225
0.60000000 0.95000000 0.15000000 0.178239
-1.00000000 -0.85000000 -0.30000000 0.178253
0.90000000 -0.60000000 -0.40000000 0.178270
-0.30000000 1.00000000 -0.50000000 0.178286
-0.70000000 1.00000000 0.15000000 0.178314
0.50000000 -0.65000000 -0.55000000 0.178324
-0.45000000 -0.90000000 -0.55000000 0.178352
-0.15000000 -0.75000000 -0.60000000 0.178373
-0.30000000 -0.40000000 -0.60000000 0.178385
0.70000000 0.90000000 0.00000000 0.178411
-0.65000000 -0.90000000 0.35000000 0.178431
0.55000000 0.45000000 -0.55000000 0.178448
-0.50000000 0.85000000 0.35000000 0.178449
-1.00000000 -0.55000000 -0.50000000 0.178449
-0.85000000 0.45000000 0.40000000 0.178488
-0.75000000 1.00000000 -0.20000000 0.178499
-0.30000000 -0.45000000 -0.60000000 0.178507
-1.00000000 0.55000000 -0.45000000 0.178509
0.45000000 0.45000000 0.45000000 0.178522
0.70000000 -0.85000000 0.25000000 0.178522
-0.50000000 -0.80000000 -0.55000000 0.178535
0.55000000 -0.70000000 0.40000000 0.178537
-0.25000000 -0.60000000 -0.60000000 0.178537
0.75000000 0.00000000 -0.55000000 0.178539
-0.75000000 0.90000000 0.15000000 0.178543
0.75000000 -0.85000000 0.20000000 0.178549
0.10000000 -0.30000000 -0.60000000 0.178562
-0.90000000 0.85000000 -0.10000000 0.178572
-0.35000000 -0.95000000 0.45000000 0.178590
-0.95000000 0.25000000 -0.55000000 0.178619
-0.20000000 -0.30000000 -0.60000000 0.178620
0.45000000 0.90000000 0.30000000 0.178623
-0.90000000 -0.65000000 0.35000000 0.178626
-0.50000000 0.60000000 -0.55000000 0.178627
-0.70000000 -1.00000000 0.30000000 0.178631
0.70000000 0.85000000 0.10000000 0.178673
0.25000000 -0.90000000 0.45000000 0.178702
0.55000000 0.70000000 0.35000000 0.178735
0.15000000 -0.35000000 -0.60000000 0.178746
-0.05000000 -0.80000000 -0.60000000 0.178759
0.60000000 -0.50000000 -0.55000000 0.178804
0.30000000 -0.80000000 0.45000000 0.178851
0.20000000 1.00000000 -0.50000000 0.178851
0.90000000 0.00000000 0.40000000 0.178854
0.65000000 0.60000000 0.35000000 0.178875
0.75000000 -0.10000000 -0.55000000 0.178915
-0.25000000 -0.35000000 -0.60000000 0.178920
-1.00000000 -1.00000000 0.00000000 0.178932
0.70000000 -0.30000000 -0.55000000 0.178992
1.00000000 0.45000000 -0.40000000 0.178995
0.05000000 -0.30000000 -0.60000000 0.179002
0.90000000 -0.10000000 0.40000000 0.179017
0.70000000 -0.95000000 0.20000000 0.179024
-0.15000000 -0.30000000 -0.60000000 0.179030
-0.65000000 0.60000000 0.40000000 0.179039
0.35000000 0.55000000 0.45000000 0.179045
-0.75000000 -0.50000000 -0.55000000 0.179063
-0.70000000 -0.55000000 -0.55000000 0.179064
1.00000000 -0.55000000 -0.40000000 0.179077
-0.45000000 0.90000000 0.35000000 0.179086
0.90000000 0.70000000 -0.15000000 0.179102
-0.25000000 0.90000000 0.40000000 0.179110
0.10000000 0.70000000 0.45000000 0.179131
-0.80000000 0.95000000 -0.05000000 0.179140
0.60000000 -0.30000000 0.45000000 0.179144
-0.40000000 0.60000000 0.45000000 0.179216
0.75000000 -0.05000000 -0.55000000 0.179220
0.10000000 -0.65000000 -0.60000000 0.179250
0.00000000 -0.30000000 -0.60000000 0.179254
0.15000000 -0.55000000 -0.60000000 0.179256
-0.10000000 -0.30000000 -0.60000000 0.179265
0.65000000 -0.65000000 -0.50000000 0.179293
0.75000000 0.75000000 -0.30000000 0.179327
-0.05000000 -0.30000000 -0.60000000 0.179339
0.40000000 1.00000000 0.30000000 0.179346
-0.90000000 -0.90000000 -0.30000000 0.179367
0.15000000 -0.40000000 -0.60000000 0.179410
0.40000000 0.50000000 0.45000000 0.179427
-0.95000000 -1.00000000 0.05000000 0.179454
0.60000000 0.65000000 0.35000000 0.179462
-0.20000000 -0.65000000 -0.60000000 0.179504
0.10000000 -0.35000000 -0.60000000 0.179548
-0.25000000 -0.55000000 -0.60000000 0.179576
0.50000000 0.80000000 -0.45000000 0.179583
0.70000000 -0.65000000 0.35000000 0.179592
-0.75000000 0.95000000 0.10000000 0.179624
-0.25000000 -0.40000000 -0.60000000 0.179637
-0.20000000 -0.35000000 -0.60000000 0.179657
-0.65000000 -0.80000000 -0.50000000 0.179662
-0.90000000 -0.30000000 0.45000000 0.179693
0.45000000 0.85000000 -0.45000000 0.179714
-0.55000000 0.85000000 -0.45000000 0.179726
0.90000000 -0.05000000 0.40000000 0.179734
0.40000000 -0.65000000 0.45000000 0.179759
0.00000000 -0.75000000 -0.60000000 0.179761
0.15000000 -0.50000000 -0.60000000 0.179763
0.15000000 -0.45000000 -0.60000000 0.179784
-0.20000000 0.70000000 0.45000000 0.179809
-1.00000000 0.15000000 0.45000000 0.179810
-1.00000000 -0.50000000 0.40000000 0.179810
0.65000000 0.95000000 -0.20000000 0.179816
0.05000000 -0.70000000 -0.60000000 0.179837
-0.90000000 0.85000000 -0.05000000 0.179841
-0.10000000 -0.75000000 -0.60000000 0.179849
-0.45000000 -0.75000000 0.45000000 0.179867
-1.00000000 -0.95000000 0.05000000 0.179885
-1.00000000 0.60000000 0.30000000 0.179917
-0.65000000 -0.60000000 -0.55000000 0.179931
0.50000000 0.90000000 -0.40000000 0.179947
0.75000000 0.70000000 -0.35000000 0.179950
-0.80000000 -0.90000000 0.25000000 0.179979
0.70000000 0.80000000 -0.30000000 0.179980
-0.15000000 0.80000000 -0.55000000 0.179985
0.20000000 0.65000000 0.45000000 0.179993
0.70000000 0.60000000 -0.45000000 0.179996
-0.15000000 -0.70000000 -0.60000000 0.180010
-0.70000000 0.90000000 0.20000000 0.180017
0.60000000 0.15000000 0.45000000 0.180030
-0.55000000 0.55000000 -0.55000000 0.180032
0.70000000 0.75000000 -0.35000000 0.180037
0.30000000 0.95000000 0.35000000 0.180040
-0.25000000 -0.45000000 -0.60000000 0.180052
-0.25000000 -0.50000000 -0.60000000 0.180062
-0.80000000 0.75000000 0.25000000 0.180079
-0.70000000 0.60000000 -0.50000000 0.180081
0.05000000 -0.35000000 -0.60000000 0.180087
-0.80000000 0.90000000 -0.20000000 0.180112
-0.15000000 -0.35000000 -0.60000000 0.180151
0.65000000 0.45000000 0.40000000 0.180164
-0.80000000 -0.45000000 -0.55000000 0.180174
-0.55000000 0.80000000 0.35000000 0.180183
-0.60000000 0.80000000 -0.45000000 0.180190
0.75000000 -0.90000000 -0.30000000 0.180202
0.50000000 -0.50000000 0.45000000 0.180205
0.65000000 -0.40000000 -0.55000000 0.180221
0.40000000 0.60000000 -0.55000000 0.180222
0.80000000 0.70000000 -0.30000000 0.180240
-0.85000000 0.20000000 0.45000000 0.180250
0.85000000 0.70000000 0.10000000 0.180280
0.75000000 -1.00000000 -0.25000000 0.180297
0.75000000 -0.75000000 -0.40000000 0.180305
-0.80000000 0.60000000 0.35000000 0.180306
-0.05000000 -0.75000000 -0.60000000 0.180310
0.65000000 -0.95000000 0.25000000 0.180350
0.10000000 -0.40000000 -0.60000000 0.180392
0.00000000 -0.35000000 -0.60000000 0.180401
0.10000000 -0.60000000 -0.60000000 0.180420
-0.10000000 -0.35000000 -0.60000000 0.180430
0.00000000 1.00000000 0.40000000 0.180437
0.05000000 0.80000000 -0.55000000 0.180471
0.50000000 0.50000000 -0.55000000 0.180472
0.55000000 0.75000000 -0.45000000 0.180479
-1.00000000 -0.70000000 0.30000000 0.180492
0.75000000 0.30000000 0.40000000 0.180510
-0.05000000 -0.35000000 -0.60000000 0.180512
0.80000000 0.65000000 -0.35000000 0.180539
-0.20000000 -0.40000000 -0.60000000 0.180543
0.95000000 0.15000000 -0.50000000 0.180556
-0.85000000 0.60000000 -0.45000000 0.180557
-0.65000000 1.00000000 0.20000000 0.180574
0.80000000 -0.95000000 -0.15000000 0.180574
-0.20000000 -0.60000000 -0.60000000 0.180665
0.75000000 0.40000000 -0.50000000 0.180679
-0.60000000 0.50000000 -0.55000000 0.180682
0.20000000 0.85000000 0.40000000 0.180696
-0.10000000 1.00000000 0.40000000 0.180774
-0.35000000 0.90000000 -0.50000000 0.180784
0.65000000 0.80000000 -0.35000000 0.180788
0.90000000 0.20000000 -0.50000000 0.180796
-0.95000000 0.40000000 0.40000000 0.180830
0.65000000 1.00000000 -0.15000000 0.180849
-0.35000000 0.70000000 -0.55000000 0.180855
0.55000000 -0.40000000 0.45000000 0.180875
-0.65000000 0.45000000 -0.55000000 0.180906
-0.95000000 0.15000000 0.45000000 0.180929
0.90000000 0.70000000 0.00000000 0.180959
0.10000000 -0.45000000 -0.60000000 0.180994
0.95000000 0.60000000 0.15000000 0.181018
-0.85000000 -0.60000000 -0.50000000 0.181040
0.50000000 -1.00000000 0.35000000 0.181049
0.05000000 -0.40000000 -0.60000000 0.181059
0.45000000 0.55000000 -0.55000000 0.181070
0.10000000 -0.55000000 -0.60000000 0.181082
0.40000000 -0.95000000 0.40000000 0.181090
-0.60000000 0.90000000 -0.40000000 0.181104
0.05000000 -0.65000000 -0.60000000 0.181127
-0.75000000 -0.40000000 0.45000000 0.181141
-0.70000000 0.40000000 -0.55000000 0.181148
0.95000000 -0.70000000 0.15000000 0.181150
-0.15000000 -0.40000000 -0.60000000 0.181152
-1.00000000 -0.35000000 -0.55000000 0.181169
-0.90000000 -0.80000000 0.25000000 0.181170
-0.85000000 -0.55000000 0.40000000 0.181171
0.65000000 0.65000000 -0.45000000 0.181178
-0.20000000 -0.45000000 -0.60000000 0.181179
0.00000000 -0.70000000 -0.60000000 0.181179
-0.30000000 0.65000000 0.45000000 0.181188
-0.40000000 0.85000000 -0.50000000 0.181190
-0.70000000 -0.45000000 0.45000000 0.181201
0.95000000 -0.25000000 -0.50000000 0.181209
-0.45000000 0.75000000 0.40000000 0.181212
0.10000000 -0.50000000 -0.60000000 0.181253
0.60000000 0.70000000 -0.45000000 0.181260
-0.10000000 -0.70000000 -0.60000000 0.181266
-0.15000000 -0.65000000 -0.60000000 0.181295
-0.20000000 -0.55000000 -0.60000000 0.181313
-0.80000000 0.80000000 0.20000000 0.181354
0.05000000 0.95000000 0.40000000 0.181360
0.70000000 0.15000000 -0.55000000 0.181373
0.75000000 -0.65000000 -0.45000000 0.181395
0.00000000 -0.40000000 -0.60000000 0.181450
-0.75000000 0.75000000 -0.40000000 0.181464
-0.20000000 -0.50000000 -0.60000000 0.181464
0.65000000 0.90000000 -0.25000000 0.181464
-0.60000000 -0.65000000 -0.55000000 0.181481
-0.10000000 -0.40000000 -0.60000000 0.181495
0.55000000 0.95000000 0.20000000 0.181498
-0.45000000 0.55000000 0.45000000 0.181507
-0.85000000 -0.80000000 -0.40000000 0.181523
0.25000000 0.90000000 -0.50000000 0.181533
-0.05000000 1.00000000 0.40000000 0.181569
-0.05000000 -0.40000000 -0.60000000 0.181593
0.75000000 -0.40000000 0.40000000 0.181595
-0.70000000 0.55000000 0.40000000 0.181628
0.80000000 -0.95000000 0.00000000 0.181646
-0.05000000 -0.70000000 -0.60000000 0.181653
0.90000000 -0.30000000 -0.50000000 0.181658
0.40000000 0.70000000 0.40000000 0.181664
-0.60000000 0.85000000 0.30000000 0.181675
-0.85000000 0.85000000 -0.20000000 0.181691
0.60000000 -0.25000000 0.45000000 0.181698
1.00000000 0.25000000 0.35000000 0.181700
-0.85000000 0.65000000 0.30000000 0.181737
-0.90000000 0.25000000 -0.55000000 0.181746
0.45000000 -0.70000000 -0.55000000 0.181752
0.45000000 1.00000000 -0.40000000 0.181756
-0.35000000 -0.90000000 0.45000000 0.181801
1.00000000 -0.35000000 0.35000000 0.181802
-0.80000000 -0.85000000 -0.40000000 0.181806
0.50000000 0.35000000 0.45000000 0.181808
0.05000000 -0.45000000 -0.60000000 0.181822
-0.80000000 -0.35000000 0.45000000 0.181854
-0.65000000 -0.50000000 0.45000000 0.181855
0.55000000 -0.85000000 0.35000000 0.181856
-0.75000000 0.35000000 -0.55000000 0.181872
-0.90000000 0.65000000 -0.40000000 0.181881
-0.95000000 -0.55000000 -0.50000000 0.181893
-1.00000000 0.80000000 -0.15000000 0.181908
-0.15000000 -0.45000000 -0.60000000 0.181939
0.65000000 -0.90000000 -0.40000000 0.181958
0.05000000 0.70000000 0.45000000 0.181972
0.05000000 -0.60000000 -0.60000000 0.181975
-0.50000000 0.90000000 -0.45000000 0.181985
0.95000000 0.35000000 -0.45000000 0.181993
-1.00000000 -0.65000000 -0.45000000 0.182019
-0.15000000 0.95000000 0.40000000 0.182039
0.55000000 0.25000000 0.45000000 0.182063
-1.00000000 -0.25000000 0.45000000 0.182084
0.30000000 0.85000000 -0.50000000 0.182090
-0.45000000 1.00000000 -0.45000000 0.182130
0.85000000 0.10000000 0.40000000 0.182133
-0.15000000 -0.60000000 -0.60000000 0.182136
0.60000000 0.10000000 0.45000000 0.182178
0.40000000 0.90000000 -0.45000000 0.182199
-1.00000000 -1.00000000 -0.10000000 0.182209
-0.10000000 0.80000000 -0.55000000 0.182220
-0.25000000 0.75000000 -0.55000000 0.182230
0.65000000 1.00000000 0.00000000 0.182248
0.35000000 -0.70000000 0.45000000 0.182251
0.00000000 -0.65000000 -0.60000000 0.182255
0.05000000 -0.50000000 -0.60000000 0.182281
0.00000000 -0.45000000 -0.60000000 0.182312
0.70000000 -0.75000000 0.30000000 0.182316
0.65000000 -0.55000000 0.40000000 0.182336
-0.10000000 -0.65000000 -0.60000000 0.182339
0.05000000 -0.55000000 -0.60000000 0.182353
0.95000000 0.65000000 -0.20000000 0.182354
0.65000000 0.95000000 0.05000000 0.182368
-0.10000000 -0.45000000 -0.60000000 0.182369
0.25000000 0.70000000 -0.55000000 0.182369
0.35000000 1.00000000 -0.45000000 0.182377
-0.65000000 0.75000000 -0.45000000 0.182391
-0.55000000 1.00000000 -0.40000000 0.182405
-0.15000000 -0.50000000 -0.60000000 0.182417
-0.30000000 0.85000000 0.40000000 0.182418
-0.15000000 0.70000000 0.45000000 0.182422
0.00000000 0.80000000 -0.55000000 0.182467
-0.05000000 -0.45000000 -0.60000000 0.182491
-0.15000000 -0.55000000 -0.60000000 0.182503
0.95000000 -0.45000000 -0.45000000 0.182510
0.60000000 0.35000000 -0.55000000 0.182520
0.80000000 0.20000000 0.40000000 0.182552
-0.85000000 -0.40000000 -0.55000000 0.182574
-0.40000000 -0.80000000 0.45000000 0.182637
0.85000000 -0.20000000 0.40000000 0.182639
-0.05000000 -0.65000000 -0.60000000 0.182656
-0.30000000 0.95000000 -0.50000000 0.182700
0.50000000 -0.75000000 0.40000000 0.182727
0.75000000 -0.50000000 -0.50000000 0.182738
-0.95000000 -0.50000000 0.40000000 0.182740
0.70000000 0.90000000 -0.10000000 0.182746
0.85000000 0.60000000 -0.35000000 0.182747
-0.50000000 0.50000000 0.45000000 0.182762
0.65000000 0.85000000 -0.30000000 0.182770
1.00000000 0.10000000 -0.50000000 0.182791
0.95000000 -0.65000000 0.20000000 0.182794
-0.65000000 0.80000000 0.30000000 0.182810
-0.70000000 0.30000000 0.45000000 0.182822
-0.65000000 0.35000000 0.45000000 0.182865
-0.60000000 -0.55000000 0.45000000 0.182874
0.00000000 -0.50000000 -0.60000000 0.182893
0.00000000 -0.60000000 -0.60000000 0.182907
-0.95000000 -0.35000000 -0.55000000 0.182913
0.70000000 -0.25000000 -0.55000000 0.182939
-0.50000000 -1.00000000 0.40000000 0.182959
-0.10000000 -0.50000000 -0.60000000 0.182960
0.25000000 -0.85000000 0.45000000 0.182965
-0.95000000 0.55000000 -0.45000000 0.182981
-0.10000000 -0.60000000 -0.60000000 0.182987
0.90000000 0.65000000 -0.25000000 0.182995
-0.80000000 -0.75000000 -0.45000000 0.182996
-0.40000000 0.95000000 0.35000000 0.183011
-0.75000000 0.55000000 -0.50000000 0.183032
-0.90000000 -1.00000000 0.10000000 0.183037
-0.05000000 0.80000000 -0.55000000 0.183051
-0.90000000 0.15000000 0.45000000 0.183056
-0.60000000 0.40000000 0.45000000 0.183108
0.00000000 -0.55000000 -0.60000000 0.183112
0.55000000 -1.00000000 -0.45000000 0.183114
-0.75000000 -0.75000000 0.35000000 0.183115
-0.05000000 -0.50000000 -0.60000000 0.183116
0.60000000 0.85000000 -0.35000000 0.183135
0.35000000 -0.85000000 -0.55000000 0.183174
-0.10000000 -0.55000000 -0.60000000 0.183186
-0.55000000 0.45000000 0.45000000 0.183194
0.70000000 0.90000000 -0.05000000 0.183224
-1.00000000 -1.00000000 -0.05000000 0.183228
-0.05000000 -0.60000000 -0.60000000 0.183242
0.15000000 0.75000000 -0.55000000 0.183257
0.85000000 0.25000000 -0.50000000 0.183260
-0.75000000 0.25000000 0.45000000 0.183265
0.75000000 -1.00000000 0.10000000 0.183267
0.55000000 -0.55000000 -0.55000000 0.183274
-0.45000000 0.80000000 -0.50000000 0.183275
0.95000000 -0.50000000 0.30000000 0.183277
1.00000000 -0.20000000 -0.50000000 0.183278
-0.95000000 -0.25000000 0.45000000 0.183280
0.65000000 0.25000000 -0.55000000 0.183281
0.85000000 0.65000000 -0.30000000 0.183303
0.20000000 0.95000000 -0.50000000 0.183306
-0.60000000 0.75000000 0.35000000 0.183321
-0.80000000 -0.80000000 0.30000000 0.183369
0.80000000 -0.30000000 0.40000000 0.183370
-0.85000000 -0.30000000 0.45000000 0.183378
-0.05000000 -0.55000000 -0.60000000 0.183386
-0.80000000 0.30000000 -0.55000000 0.183458
0.60000000 0.50000000 0.40000000 0.183459
0.60000000 -0.20000000 0.45000000 0.183492
0.25000000 0.60000000 0.45000000 0.183508
0.95000000 0.55000000 0.20000000 0.183512
0.45000000 -0.55000000 0.45000000 0.183521
-0.60000000 0.95000000 0.25000000 0.183569
0.20000000 -1.00000000 0.45000000 0.183576
-0.75000000 -0.80000000 -0.45000000 0.183648
-0.55000000 -0.70000000 -0.55000000 0.183689
-0.55000000 -0.85000000 0.40000000 0.183710
0.60000000 0.05000000 0.45000000 0.183715
0.00000000 0.70000000 0.45000000 0.183718
-0.50000000 1.00000000 0.30000000 0.183748
0.95000000 0.40000000 0.30000000 0.183842
-0.55000000 0.90000000 0.30000000 0.183845
0.60000000 -0.85000000 -0.45000000 0.183894
-0.90000000 0.45000000 -0.50000000 0.183925
-0.10000000 0.70000000 0.45000000 0.183943
-0.45000000 -0.85000000 -0.55000000 0.183994
-0.75000000 1.00000000 0.05000000 0.184005
0.60000000 -0.70000000 -0.50000000 0.184058
0.50000000 -0.85000000 -0.50000000 0.184080
-0.55000000 -0.60000000 0.45000000 0.184085
0.65000000 -0.70000000 0.35000000 0.184102
-0.70000000 -0.95000000 0.30000000 0.184145
0.90000000 0.30000000 0.35000000 0.184149
0.10000000 0.90000000 0.40000000 0.184157
-1.00000000 -0.90000000 0.10000000 0.184210
-0.80000000 -0.95000000 -0.35000000 0.184217
1.00000000 0.65000000 -0.15000000 0.184218
0.85000000 -0.80000000 -0.25000000 0.184221
-0.95000000 -0.80000000 -0.35000000 0.184245
0.45000000 0.65000000 0.40000000 0.184274
0.90000000 -0.40000000 0.35000000 0.184279
0.35000000 0.80000000 -0.50000000 0.184282
-0.80000000 0.20000000 0.45000000 0.184335
-0.95000000 -0.95000000 -0.20000000 0.184352
0.00000000 0.95000000 0.40000000 0.184359
-0.05000000 0.70000000 0.45000000 0.184374
0.85000000 -0.35000000 -0.50000000 0.184384
-0.85000000 0.80000000 0.15000000 0.184414
0.60000000 -0.90000000 0.30000000 0.184440
0.45000000 0.40000000 0.45000000 0.184490
-0.75000000 0.50000000 0.40000000 0.184492
0.85000000 0.35000000 0.35000000 0.184530
0.55000000 -0.35000000 0.45000000 0.184566
-0.40000000 0.65000000 -0.55000000 0.184580
0.15000000 0.65000000 0.45000000 0.184591
0.60000000 -0.15000000 0.45000000 0.184622
0.70000000 0.10000000 -0.55000000 0.184646
-0.10000000 0.95000000 0.40000000 0.184702
0.60000000 0.00000000 0.45000000 0.184706
0.85000000 -0.45000000 0.35000000 0.184707
-0.95000000 0.80000000 0.05000000 0.184739
0.30000000 -1.00000000 -0.55000000 0.184758
0.45000000 -1.00000000 -0.50000000 0.184759
0.25000000 0.80000000 0.40000000 0.184763
-0.95000000 0.75000000 0.15000000 0.184804
0.70000000 -0.90000000 -0.35000000 0.184844
-0.90000000 0.80000000 0.10000000 0.184856
0.30000000 -0.75000000 0.45000000 0.184904
-0.70000000 -0.80000000 0.35000000 0.184904
-0.80000000 -0.70000000 0.35000000 0.184927
