//X Y Z Consensus 
-0.10000000 -0.40000000 0.80000000 0.035634
0.95000000 0.10000000 -0.85000000 0.035641
-0.85000000 0.25000000 0.70000000 0.035644
-0.85000000 0.20000000 -0.95000000 0.035646
-0.60000000 0.15000000 0.75000000 0.035653
1.00000000 -0.75000000 -0.60000000 0.035657
-0.85000000 0.70000000 -0.70000000 0.035659
-0.60000000 0.75000000 -0.80000000 0.035661
0.05000000 0.35000000 0.75000000 0.035661
-1.00000000 -0.35000000 0.70000000 0.035662
-0.55000000 0.80000000 0.60000000 0.035663
-0.15000000 -0.50000000 0.80000000 0.035687
-0.10000000 0.25000000 0.75000000 0.035692
-0.50000000 -0.60000000 0.75000000 0.035703
0.10000000 0.05000000 0.75000000 0.035703
0.45000000 0.70000000 -0.90000000 0.035708
-0.70000000 -1.00000000 -0.70000000 0.035708
-0.55000000 0.55000000 -1.00000000 0.035709
0.15000000 0.15000000 0.75000000 0.035712
0.75000000 0.25000000 0.65000000 0.035713
-0.30000000 -0.85000000 -1.00000000 0.035714
0.40000000 -1.00000000 0.65000000 0.035717
0.65000000 -0.75000000 0.60000000 0.035721
0.15000000 0.35000000 0.75000000 0.035722
0.45000000 -0.75000000 -0.90000000 0.035722
0.65000000 0.90000000 0.45000000 0.035733
0.10000000 0.10000000 0.75000000 0.035740
0.95000000 -0.80000000 0.45000000 0.035740
0.55000000 -1.00000000 -0.75000000 0.035742
-0.40000000 -0.45000000 0.80000000 0.035743
-0.35000000 -0.70000000 0.75000000 0.035744
0.85000000 0.10000000 -0.90000000 0.035746
0.00000000 0.30000000 0.75000000 0.035749
-0.75000000 0.70000000 -0.75000000 0.035750
-0.95000000 0.55000000 0.60000000 0.035754
-0.90000000 -0.25000000 -0.95000000 0.035755
-0.60000000 0.50000000 -1.00000000 0.035756
0.20000000 0.20000000 0.75000000 0.035763
0.10000000 0.35000000 0.75000000 0.035768
-0.45000000 -0.40000000 0.80000000 0.035769
0.00000000 1.00000000 -0.85000000 0.035770
-0.95000000 0.20000000 0.70000000 0.035770
0.00000000 0.85000000 0.65000000 0.035772
-0.30000000 -1.00000000 -0.90000000 0.035773
-0.55000000 1.00000000 0.55000000 0.035774
0.70000000 0.95000000 0.40000000 0.035777
0.95000000 0.95000000 -0.35000000 0.035777
-0.30000000 -0.15000000 0.80000000 0.035778
0.10000000 0.00000000 0.75000000 0.035787
-0.85000000 -0.75000000 0.60000000 0.035795
0.45000000 -0.85000000 0.65000000 0.035797
-0.05000000 1.00000000 -0.85000000 0.035798
-0.05000000 0.25000000 0.75000000 0.035803
0.00000000 -0.75000000 0.75000000 0.035805
0.95000000 -0.90000000 0.40000000 0.035808
-0.90000000 1.00000000 -0.50000000 0.035816
0.65000000 0.45000000 -0.95000000 0.035817
0.20000000 0.30000000 0.75000000 0.035823
0.55000000 -0.95000000 0.60000000 0.035825
0.20000000 -0.30000000 0.75000000 0.035833
-0.45000000 0.50000000 0.70000000 0.035835
0.75000000 -0.95000000 0.50000000 0.035841
-1.00000000 -0.70000000 -0.70000000 0.035852
0.10000000 0.15000000 0.75000000 0.035853
0.85000000 -0.10000000 -0.90000000 0.035859
0.15000000 -0.15000000 0.75000000 0.035859
0.40000000 -0.70000000 -1.00000000 0.035867
-0.50000000 -0.75000000 -0.95000000 0.035871
-0.95000000 0.45000000 -0.80000000 0.035874
0.55000000 -0.65000000 -0.90000000 0.035877
0.80000000 -0.05000000 -0.95000000 0.035877
0.70000000 -0.40000000 0.65000000 0.035881
0.65000000 -1.00000000 0.55000000 0.035883
-0.85000000 0.80000000 0.50000000 0.035886
-0.30000000 -0.50000000 0.80000000 0.035889
0.80000000 0.80000000 -0.60000000 0.035889
0.20000000 0.25000000 0.75000000 0.035891
0.80000000 -0.15000000 0.65000000 0.035894
0.85000000 -0.45000000 0.60000000 0.035898
0.00000000 -1.00000000 -0.95000000 0.035902
-0.50000000 -0.20000000 0.80000000 0.035905
-0.50000000 -0.80000000 -0.90000000 0.035905
0.65000000 -0.50000000 0.65000000 0.035908
-0.50000000 0.95000000 -0.75000000 0.035910
-0.50000000 -0.30000000 0.80000000 0.035913
0.95000000 -0.35000000 -0.80000000 0.035915
0.90000000 0.65000000 0.45000000 0.035915
0.95000000 0.40000000 0.55000000 0.035916
0.00000000 0.25000000 0.75000000 0.035916
0.60000000 0.20000000 0.70000000 0.035917
0.95000000 0.70000000 0.40000000 0.035917
-0.75000000 0.65000000 0.60000000 0.035918
0.15000000 0.20000000 0.75000000 0.035918
-0.10000000 -1.00000000 -0.95000000 0.035921
0.05000000 0.30000000 0.75000000 0.035925
-0.75000000 0.00000000 0.75000000 0.035927
-0.75000000 0.35000000 -0.95000000 0.035929
0.25000000 -0.85000000 0.70000000 0.035933
-0.35000000 1.00000000 0.60000000 0.035933
0.80000000 0.05000000 -0.95000000 0.035935
-0.45000000 0.20000000 0.75000000 0.035949
0.60000000 -0.05000000 0.70000000 0.035951
0.85000000 0.30000000 -0.85000000 0.035953
0.15000000 0.65000000 0.70000000 0.035953
0.90000000 -0.80000000 -0.60000000 0.035960
-0.15000000 -0.30000000 0.80000000 0.035961
-0.60000000 -0.50000000 0.75000000 0.035968
0.85000000 -0.85000000 -0.60000000 0.035976
-0.95000000 -0.10000000 -0.95000000 0.035978
-0.10000000 0.85000000 0.65000000 0.035979
0.05000000 0.15000000 0.75000000 0.035980
0.90000000 -0.40000000 -0.80000000 0.035985
0.50000000 -0.70000000 -0.90000000 0.035985
0.10000000 0.20000000 0.75000000 0.035986
-0.45000000 -0.15000000 0.80000000 0.035994
0.05000000 0.10000000 0.75000000 0.035998
-0.90000000 0.10000000 -0.95000000 0.035998
0.45000000 0.65000000 -0.95000000 0.036001
0.15000000 0.30000000 0.75000000 0.036001
0.35000000 0.55000000 0.70000000 0.036002
0.05000000 0.20000000 0.75000000 0.036007
-0.80000000 -0.65000000 0.65000000 0.036010
0.80000000 0.10000000 0.65000000 0.036013
0.05000000 0.25000000 0.75000000 0.036014
0.10000000 -0.05000000 0.75000000 0.036014
0.00000000 0.20000000 0.75000000 0.036017
0.75000000 1.00000000 0.35000000 0.036019
0.10000000 0.30000000 0.75000000 0.036021
-0.55000000 -0.55000000 0.75000000 0.036027
-0.95000000 -0.05000000 -0.95000000 0.036027
0.50000000 -0.35000000 0.70000000 0.036031
0.55000000 -0.55000000 -1.00000000 0.036034
-0.15000000 0.85000000 -0.90000000 0.036038
-0.05000000 0.20000000 0.75000000 0.036041
0.15000000 0.25000000 0.75000000 0.036041
0.55000000 -0.20000000 0.70000000 0.036047
-0.85000000 0.30000000 -0.90000000 0.036048
-0.80000000 0.95000000 0.45000000 0.036048
0.90000000 0.20000000 -0.85000000 0.036050
0.70000000 -0.85000000 0.55000000 0.036050
-0.95000000 0.55000000 -0.75000000 0.036054
0.35000000 0.70000000 0.65000000 0.036056
0.45000000 -1.00000000 -0.80000000 0.036058
-0.75000000 0.50000000 0.65000000 0.036064
-0.05000000 0.85000000 0.65000000 0.036064
0.10000000 0.25000000 0.75000000 0.036068
-0.95000000 -1.00000000 -0.55000000 0.036072
0.45000000 -0.50000000 0.70000000 0.036073
0.70000000 -0.75000000 -0.75000000 0.036075
-0.20000000 -0.50000000 0.80000000 0.036079
-1.00000000 -0.95000000 -0.55000000 0.036085
-0.30000000 -1.00000000 0.70000000 0.036085
-1.00000000 0.65000000 0.55000000 0.036086
-0.10000000 0.20000000 0.75000000 0.036091
-0.50000000 -0.25000000 0.80000000 0.036094
-0.60000000 0.40000000 0.70000000 0.036097
1.00000000 0.75000000 0.35000000 0.036111
0.20000000 -0.50000000 0.75000000 0.036114
0.05000000 0.05000000 0.75000000 0.036114
-0.35000000 -0.85000000 -0.95000000 0.036118
0.50000000 0.40000000 0.70000000 0.036120
0.00000000 0.15000000 0.75000000 0.036124
-0.75000000 0.30000000 -1.00000000 0.036130
0.80000000 0.00000000 -0.95000000 0.036131
0.70000000 -0.85000000 -0.70000000 0.036134
-0.75000000 1.00000000 -0.60000000 0.036141
-0.25000000 -0.20000000 0.80000000 0.036141
-0.15000000 0.65000000 0.70000000 0.036146
-0.85000000 0.85000000 -0.60000000 0.036150
0.20000000 -0.35000000 0.75000000 0.036152
-0.25000000 -0.50000000 0.80000000 0.036155
-0.35000000 -0.15000000 0.80000000 0.036155
0.20000000 -1.00000000 -0.90000000 0.036161
-0.90000000 0.95000000 0.40000000 0.036163
-0.05000000 -1.00000000 -0.95000000 0.036163
0.30000000 0.85000000 -0.85000000 0.036166
0.10000000 0.95000000 -0.85000000 0.036168
-0.15000000 0.20000000 0.75000000 0.036170
0.20000000 0.75000000 -1.00000000 0.036172
0.95000000 -0.10000000 -0.85000000 0.036175
0.35000000 -0.70000000 0.70000000 0.036179
0.05000000 -0.90000000 -1.00000000 0.036180
-0.65000000 0.85000000 0.55000000 0.036186
0.10000000 0.80000000 -0.95000000 0.036192
0.80000000 -0.70000000 0.55000000 0.036195
-0.20000000 -0.25000000 0.80000000 0.036201
0.55000000 0.90000000 0.50000000 0.036207
-0.15000000 0.95000000 -0.85000000 0.036218
0.65000000 -0.45000000 -0.95000000 0.036231
-0.25000000 0.90000000 -0.85000000 0.036236
-0.20000000 -0.75000000 0.75000000 0.036237
-0.60000000 -0.85000000 0.65000000 0.036239
-0.40000000 -0.15000000 0.80000000 0.036242
-0.95000000 0.75000000 0.50000000 0.036248
-0.40000000 0.20000000 0.75000000 0.036253
1.00000000 -1.00000000 0.35000000 0.036265
-0.20000000 0.20000000 0.75000000 0.036266
0.75000000 0.85000000 -0.60000000 0.036267
-0.65000000 0.10000000 0.75000000 0.036269
0.85000000 0.75000000 -0.60000000 0.036271
-0.85000000 -1.00000000 -0.60000000 0.036274
-0.60000000 0.90000000 0.55000000 0.036278
-0.80000000 0.90000000 -0.60000000 0.036284
-0.95000000 0.40000000 0.65000000 0.036286
-0.60000000 0.95000000 -0.70000000 0.036288
0.75000000 0.45000000 0.60000000 0.036288
-0.85000000 0.70000000 0.55000000 0.036293
0.00000000 0.10000000 0.75000000 0.036296
0.75000000 -0.25000000 -0.95000000 0.036302
-0.05000000 0.15000000 0.75000000 0.036305
-0.75000000 -0.45000000 -1.00000000 0.036305
0.15000000 -0.20000000 0.75000000 0.036306
0.60000000 1.00000000 0.45000000 0.036307
-0.15000000 -0.45000000 0.80000000 0.036322
0.15000000 0.80000000 0.65000000 0.036325
0.85000000 -0.90000000 0.45000000 0.036325
-0.75000000 0.30000000 0.70000000 0.036325
0.95000000 -0.55000000 0.55000000 0.036330
1.00000000 -0.30000000 0.60000000 0.036334
-1.00000000 -0.85000000 -0.60000000 0.036341
0.45000000 0.75000000 0.60000000 0.036344
0.70000000 -0.55000000 -0.85000000 0.036348
0.20000000 -0.40000000 0.75000000 0.036353
-0.60000000 0.60000000 0.65000000 0.036356
-0.65000000 0.70000000 -0.80000000 0.036356
0.70000000 -0.45000000 -0.90000000 0.036356
0.50000000 1.00000000 0.50000000 0.036357
-0.25000000 0.20000000 0.75000000 0.036358
0.70000000 -0.65000000 -0.80000000 0.036358
0.20000000 -0.45000000 0.75000000 0.036362
0.05000000 0.00000000 0.75000000 0.036364
-0.95000000 -0.55000000 0.65000000 0.036365
0.55000000 0.75000000 -0.80000000 0.036378
0.80000000 -0.40000000 -0.85000000 0.036381
0.80000000 0.25000000 -0.90000000 0.036386
0.75000000 0.55000000 -0.80000000 0.036389
-1.00000000 0.15000000 -0.90000000 0.036391
0.10000000 -0.10000000 0.75000000 0.036391
-0.70000000 0.05000000 0.75000000 0.036392
-0.35000000 0.20000000 0.75000000 0.036393
0.15000000 -0.90000000 -0.95000000 0.036400
-0.80000000 0.65000000 -0.75000000 0.036400
0.20000000 0.90000000 -0.85000000 0.036402
0.60000000 0.00000000 0.70000000 0.036407
-0.15000000 -0.35000000 0.80000000 0.036412
-0.30000000 0.20000000 0.75000000 0.036413
-0.35000000 0.55000000 0.70000000 0.036423
-0.05000000 -0.75000000 0.75000000 0.036431
-0.75000000 -0.25000000 0.75000000 0.036432
-0.20000000 0.75000000 -1.00000000 0.036432
-0.85000000 0.10000000 -1.00000000 0.036433
0.95000000 0.20000000 0.60000000 0.036448
-0.45000000 0.70000000 0.65000000 0.036456
0.40000000 -0.95000000 0.65000000 0.036456
0.45000000 -0.65000000 -1.00000000 0.036464
0.60000000 0.15000000 0.70000000 0.036470
0.50000000 -0.75000000 0.65000000 0.036475
0.85000000 0.05000000 -0.90000000 0.036475
-0.10000000 0.80000000 -0.95000000 0.036482
0.90000000 0.55000000 0.50000000 0.036484
-0.15000000 -0.90000000 -1.00000000 0.036488
-0.95000000 -0.35000000 0.70000000 0.036494
0.95000000 0.30000000 -0.80000000 0.036495
0.35000000 -0.95000000 -0.85000000 0.036501
0.40000000 -0.60000000 0.70000000 0.036516
0.10000000 0.85000000 -0.90000000 0.036517
-0.35000000 -0.90000000 0.70000000 0.036518
0.85000000 -0.05000000 -0.90000000 0.036523
0.95000000 0.05000000 -0.85000000 0.036524
-0.40000000 -0.85000000 0.70000000 0.036529
0.90000000 0.25000000 0.60000000 0.036532
-0.10000000 0.15000000 0.75000000 0.036533
0.30000000 0.95000000 -0.80000000 0.036533
0.25000000 -0.80000000 -1.00000000 0.036536
0.50000000 -0.60000000 -1.00000000 0.036538
0.75000000 0.25000000 -0.95000000 0.036539
-0.15000000 -0.40000000 0.80000000 0.036552
0.40000000 0.50000000 0.70000000 0.036553
0.80000000 -0.10000000 0.65000000 0.036555
-0.70000000 -0.35000000 0.75000000 0.036556
0.80000000 -0.25000000 -0.90000000 0.036570
0.85000000 -0.95000000 -0.55000000 0.036570
0.15000000 -0.60000000 0.75000000 0.036570
-0.35000000 -0.45000000 0.80000000 0.036571
1.00000000 0.60000000 0.45000000 0.036575
-0.75000000 -0.55000000 -0.90000000 0.036575
0.65000000 -0.40000000 -1.00000000 0.036578
-0.85000000 -0.25000000 -1.00000000 0.036580
0.00000000 0.05000000 0.75000000 0.036582
-0.55000000 0.15000000 0.75000000 0.036584
-0.45000000 -0.35000000 0.80000000 0.036584
0.45000000 0.45000000 0.70000000 0.036591
0.20000000 0.95000000 0.60000000 0.036594
0.25000000 0.60000000 0.70000000 0.036597
-1.00000000 0.70000000 -0.65000000 0.036613
0.30000000 -0.80000000 -0.95000000 0.036631
0.05000000 -0.95000000 -0.95000000 0.036632
0.65000000 0.40000000 -1.00000000 0.036638
0.20000000 -0.90000000 0.70000000 0.036639
0.70000000 -0.30000000 -1.00000000 0.036647
0.75000000 -0.15000000 -1.00000000 0.036648
-0.70000000 -0.55000000 -0.95000000 0.036650
-0.45000000 -0.20000000 0.80000000 0.036651
-0.05000000 0.10000000 0.75000000 0.036651
-0.15000000 -0.75000000 0.75000000 0.036656
0.80000000 0.05000000 0.65000000 0.036666
0.25000000 0.90000000 0.60000000 0.036672
0.55000000 0.30000000 0.70000000 0.036673
0.60000000 0.05000000 0.70000000 0.036675
-0.25000000 0.60000000 0.70000000 0.036677
0.25000000 0.75000000 0.65000000 0.036691
-1.00000000 1.00000000 0.35000000 0.036710
0.60000000 0.10000000 0.70000000 0.036711
-0.30000000 -0.20000000 0.80000000 0.036718
-0.10000000 -0.75000000 0.75000000 0.036719
-0.50000000 0.45000000 0.70000000 0.036725
-0.95000000 -0.30000000 -0.90000000 0.036725
0.10000000 0.65000000 0.70000000 0.036728
-0.15000000 -0.95000000 -0.95000000 0.036728
1.00000000 0.50000000 0.50000000 0.036729
0.40000000 1.00000000 -0.75000000 0.036733
0.85000000 0.00000000 -0.90000000 0.036734
-0.55000000 0.70000000 -0.85000000 0.036736
0.50000000 -0.30000000 0.70000000 0.036736
-1.00000000 0.30000000 -0.85000000 0.036742
0.90000000 -1.00000000 -0.50000000 0.036745
0.05000000 -0.70000000 0.75000000 0.036747
-0.80000000 -0.95000000 0.55000000 0.036764
-0.45000000 0.65000000 -0.95000000 0.036765
0.05000000 -0.05000000 0.75000000 0.036767
-0.25000000 -0.90000000 -0.95000000 0.036770
0.15000000 -1.00000000 0.70000000 0.036770
0.55000000 -0.15000000 0.70000000 0.036777
-0.90000000 0.85000000 0.45000000 0.036786
0.95000000 -0.05000000 -0.85000000 0.036789
-0.55000000 -0.75000000 -0.90000000 0.036790
-0.60000000 0.75000000 0.60000000 0.036792
-0.75000000 -0.05000000 0.75000000 0.036794
-0.90000000 0.20000000 0.70000000 0.036795
-0.95000000 0.85000000 -0.55000000 0.036797
-0.70000000 0.65000000 -0.80000000 0.036799
-0.10000000 0.65000000 0.70000000 0.036802
-0.15000000 0.15000000 0.75000000 0.036802
-0.40000000 -0.40000000 0.80000000 0.036805
-0.25000000 0.80000000 0.65000000 0.036818
0.15000000 -0.25000000 0.75000000 0.036820
-0.80000000 0.20000000 -1.00000000 0.036835
-0.45000000 -0.80000000 0.70000000 0.036837
1.00000000 0.40000000 -0.75000000 0.036839
0.75000000 0.35000000 -0.90000000 0.036839
-0.20000000 -0.30000000 0.80000000 0.036845
0.25000000 0.80000000 -0.90000000 0.036851
0.90000000 0.35000000 -0.80000000 0.036852
-0.90000000 -0.90000000 -0.60000000 0.036858
-0.20000000 -0.45000000 0.80000000 0.036868
0.35000000 0.90000000 -0.80000000 0.036873
1.00000000 -1.00000000 -0.45000000 0.036874
-0.45000000 -0.75000000 -1.00000000 0.036877
-0.85000000 -0.60000000 0.65000000 0.036891
-0.70000000 0.80000000 0.55000000 0.036891
-0.55000000 -0.70000000 -0.95000000 0.036892
0.10000000 -0.15000000 0.75000000 0.036904
-0.65000000 -0.90000000 -0.75000000 0.036908
0.95000000 0.00000000 -0.85000000 0.036909
0.85000000 -0.45000000 -0.80000000 0.036913
-0.95000000 -0.80000000 0.55000000 0.036914
0.80000000 -0.05000000 0.65000000 0.036920
-0.30000000 -0.95000000 0.70000000 0.036923
0.65000000 0.40000000 0.65000000 0.036929
0.90000000 -0.20000000 -0.85000000 0.036938
0.40000000 0.65000000 -1.00000000 0.036938
-0.25000000 -0.25000000 0.80000000 0.036946
-0.40000000 -0.65000000 0.75000000 0.036951
0.15000000 -0.85000000 -1.00000000 0.036952
-0.75000000 -0.70000000 -0.80000000 0.036954
-0.70000000 -0.75000000 -0.80000000 0.036955
-0.90000000 -1.00000000 0.50000000 0.036958
0.80000000 0.00000000 0.65000000 0.036964
0.75000000 0.15000000 -1.00000000 0.036969
0.75000000 -0.25000000 0.65000000 0.036972
0.05000000 0.80000000 -0.95000000 0.036974
-0.85000000 0.40000000 -0.85000000 0.036979
-0.45000000 -0.30000000 0.80000000 0.036988
0.45000000 -0.45000000 0.70000000 0.036991
0.50000000 1.00000000 -0.70000000 0.036997
0.00000000 -0.90000000 -1.00000000 0.036997
-1.00000000 -0.90000000 0.50000000 0.036997
-0.45000000 -0.25000000 0.80000000 0.036998
0.10000000 -0.65000000 0.75000000 0.037000
-0.80000000 0.35000000 -0.90000000 0.037003
-0.90000000 -0.65000000 -0.75000000 0.037004
0.00000000 0.00000000 0.75000000 0.037009
-0.40000000 -0.20000000 0.80000000 0.037018
-0.30000000 -0.45000000 0.80000000 0.037023
-0.65000000 -0.80000000 -0.80000000 0.037026
-0.80000000 -0.65000000 -0.80000000 0.037026
-0.35000000 -0.20000000 0.80000000 0.037027
0.70000000 -0.35000000 -0.95000000 0.037031
0.70000000 -1.00000000 -0.65000000 0.037034
0.70000000 0.30000000 -1.00000000 0.037038
-0.90000000 -0.35000000 -0.90000000 0.037038
-0.75000000 0.60000000 -0.80000000 0.037039
0.75000000 0.45000000 -0.85000000 0.037050
1.00000000 -0.30000000 -0.80000000 0.037064
-0.10000000 0.10000000 0.75000000 0.037065
0.85000000 -0.30000000 -0.85000000 0.037070
-0.35000000 0.75000000 0.65000000 0.037071
0.65000000 -0.95000000 0.55000000 0.037073
-0.10000000 0.85000000 -0.90000000 0.037086
0.80000000 -0.50000000 0.60000000 0.037092
-0.20000000 0.15000000 0.75000000 0.037096
0.65000000 -0.80000000 -0.75000000 0.037097
0.90000000 -0.95000000 0.40000000 0.037097
-0.45000000 0.70000000 -0.90000000 0.037104
-0.30000000 -0.70000000 0.75000000 0.037106
-0.65000000 0.35000000 0.70000000 0.037107
1.00000000 0.50000000 -0.70000000 0.037109
0.60000000 0.50000000 -0.95000000 0.037111
-0.25000000 -0.45000000 0.80000000 0.037113
-0.80000000 -0.35000000 -1.00000000 0.037115
-0.05000000 0.80000000 -0.95000000 0.037116
1.00000000 0.95000000 0.15000000 0.037116
0.95000000 1.00000000 0.15000000 0.037116
-0.05000000 0.05000000 0.75000000 0.037118
0.30000000 -0.75000000 0.70000000 0.037118
-1.00000000 0.90000000 -0.50000000 0.037127
0.25000000 0.75000000 -0.95000000 0.037127
0.65000000 0.50000000 -0.90000000 0.037129
-0.75000000 -0.20000000 0.75000000 0.037130
0.75000000 -0.35000000 -0.90000000 0.037135
0.35000000 0.75000000 -0.90000000 0.037136
0.45000000 0.75000000 -0.85000000 0.037137
-0.10000000 -0.90000000 -1.00000000 0.037157
0.90000000 1.00000000 0.20000000 0.037158
-0.70000000 -0.90000000 0.60000000 0.037162
1.00000000 0.90000000 0.20000000 0.037163
0.70000000 0.35000000 -0.95000000 0.037179
0.05000000 0.65000000 0.70000000 0.037188
0.05000000 0.95000000 -0.85000000 0.037192
-0.35000000 0.95000000 -0.80000000 0.037194
-0.90000000 0.35000000 -0.85000000 0.037198
0.50000000 0.60000000 -0.95000000 0.037207
-0.05000000 0.65000000 0.70000000 0.037208
-0.80000000 0.45000000 -0.85000000 0.037209
-0.20000000 -0.35000000 0.80000000 0.037212
-0.10000000 0.95000000 -0.85000000 0.037218
0.50000000 0.65000000 -0.90000000 0.037222
1.00000000 0.15000000 0.60000000 0.037231
-0.20000000 -0.40000000 0.80000000 0.037236
-0.70000000 0.40000000 -0.95000000 0.037240
-0.80000000 0.55000000 -0.80000000 0.037241
-0.40000000 0.90000000 -0.80000000 0.037242
-0.50000000 0.15000000 0.75000000 0.037245
0.65000000 -0.70000000 -0.80000000 0.037245
-0.40000000 0.90000000 0.60000000 0.037247
-0.90000000 -0.20000000 -0.95000000 0.037249
-1.00000000 -0.40000000 -0.85000000 0.037252
-0.35000000 0.95000000 0.60000000 0.037254
0.70000000 0.50000000 0.60000000 0.037254
0.60000000 0.70000000 -0.80000000 0.037257
1.00000000 -0.45000000 -0.75000000 0.037257
0.70000000 -0.65000000 0.60000000 0.037258
-0.80000000 -0.40000000 -0.95000000 0.037261
0.70000000 0.60000000 -0.80000000 0.037262
0.85000000 0.90000000 0.30000000 0.037269
-0.95000000 0.65000000 0.55000000 0.037275
0.00000000 0.80000000 -0.95000000 0.037284
0.90000000 0.85000000 0.30000000 0.037284
-0.40000000 0.65000000 -1.00000000 0.037284
-0.80000000 0.25000000 0.70000000 0.037290
-0.40000000 0.50000000 0.70000000 0.037290
0.55000000 -0.95000000 -0.75000000 0.037291
-0.85000000 -0.85000000 -0.65000000 0.037291
-0.50000000 -0.75000000 0.70000000 0.037298
-0.70000000 -0.60000000 -0.90000000 0.037299
0.50000000 0.70000000 0.60000000 0.037300
-0.75000000 -0.10000000 0.75000000 0.037300
0.85000000 0.30000000 0.60000000 0.037312
0.80000000 1.00000000 0.30000000 0.037314
-1.00000000 1.00000000 -0.45000000 0.037318
0.60000000 0.85000000 -0.70000000 0.037319
0.60000000 0.95000000 -0.65000000 0.037320
0.05000000 -0.10000000 0.75000000 0.037320
-0.65000000 -0.60000000 -0.95000000 0.037327
-0.05000000 -0.90000000 -1.00000000 0.037327
-0.60000000 -0.85000000 -0.80000000 0.037330
0.55000000 -0.65000000 0.65000000 0.037332
-0.85000000 -0.60000000 -0.80000000 0.037339
0.15000000 -0.30000000 0.75000000 0.037340
0.00000000 0.65000000 0.70000000 0.037343
-0.30000000 -0.95000000 -0.90000000 0.037349
-1.00000000 -0.25000000 -0.90000000 0.037355
0.75000000 0.20000000 0.65000000 0.037362
1.00000000 0.80000000 0.30000000 0.037363
0.85000000 0.60000000 -0.70000000 0.037377
-0.85000000 0.60000000 -0.75000000 0.037378
0.95000000 0.60000000 -0.65000000 0.037380
-0.25000000 0.15000000 0.75000000 0.037387
0.05000000 0.85000000 -0.90000000 0.037389
-0.90000000 0.05000000 -0.95000000 0.037389
0.50000000 -0.25000000 0.70000000 0.037399
0.40000000 0.65000000 0.65000000 0.037400
-0.80000000 0.25000000 -0.95000000 0.037405
-0.60000000 -0.65000000 -0.95000000 0.037410
-0.60000000 -0.70000000 -0.90000000 0.037412
0.15000000 -0.95000000 0.70000000 0.037415
0.00000000 -0.95000000 -0.95000000 0.037416
-0.75000000 -0.15000000 0.75000000 0.037418
-0.55000000 -0.90000000 0.65000000 0.037421
0.65000000 0.80000000 -0.70000000 0.037421
-0.40000000 -1.00000000 -0.85000000 0.037432
-0.55000000 0.95000000 0.55000000 0.037434
-0.40000000 -0.35000000 0.80000000 0.037444
-0.30000000 -0.25000000 0.80000000 0.037447
-0.70000000 -0.95000000 -0.70000000 0.037450
0.15000000 1.00000000 0.60000000 0.037450
-0.35000000 -0.40000000 0.80000000 0.037455
0.80000000 0.65000000 -0.70000000 0.037456
0.55000000 -0.10000000 0.70000000 0.037461
0.15000000 -0.55000000 0.75000000 0.037463
-0.10000000 -0.95000000 -0.95000000 0.037467
0.30000000 0.85000000 0.60000000 0.037468
-1.00000000 0.15000000 0.70000000 0.037469
-0.60000000 0.10000000 0.75000000 0.037469
-0.65000000 0.55000000 0.65000000 0.037487
0.70000000 -0.35000000 0.65000000 0.037508
-0.25000000 -0.30000000 0.80000000 0.037508
-0.40000000 -0.25000000 0.80000000 0.037512
1.00000000 0.25000000 -0.80000000 0.037515
-0.90000000 0.55000000 0.60000000 0.037515
0.10000000 -0.20000000 0.75000000 0.037521
0.95000000 -0.30000000 0.60000000 0.037521
-0.90000000 -0.70000000 0.60000000 0.037525
0.85000000 1.00000000 0.25000000 0.037526
-0.15000000 0.10000000 0.75000000 0.037527
0.45000000 -0.95000000 -0.80000000 0.037529
1.00000000 0.85000000 0.25000000 0.037546
-0.65000000 -0.40000000 0.75000000 0.037558
0.35000000 0.70000000 -0.95000000 0.037560
-0.40000000 0.80000000 -0.85000000 0.037562
0.30000000 0.70000000 -1.00000000 0.037568
-0.80000000 0.45000000 0.65000000 0.037570
-0.60000000 0.65000000 -0.85000000 0.037570
0.65000000 0.65000000 -0.80000000 0.037575
-0.90000000 0.40000000 0.65000000 0.037583
-0.95000000 -0.70000000 -0.70000000 0.037585
0.55000000 0.55000000 -0.95000000 0.037589
0.00000000 -0.05000000 0.75000000 0.037590
-0.35000000 -0.90000000 -0.90000000 0.037597
0.25000000 1.00000000 -0.80000000 0.037599
0.70000000 0.75000000 -0.70000000 0.037600
-0.65000000 -0.65000000 -0.90000000 0.037600
-0.95000000 0.90000000 0.40000000 0.037601
-0.75000000 0.50000000 -0.85000000 0.037606
0.20000000 -0.95000000 -0.90000000 0.037607
0.70000000 0.90000000 -0.60000000 0.037611
0.75000000 0.70000000 -0.70000000 0.037611
-0.25000000 0.75000000 -0.95000000 0.037614
0.65000000 -0.60000000 -0.85000000 0.037621
0.55000000 -0.90000000 0.60000000 0.037622
0.90000000 0.70000000 -0.60000000 0.037622
-0.30000000 0.15000000 0.75000000 0.037634
0.25000000 -0.90000000 -0.90000000 0.037639
-0.25000000 -0.40000000 0.80000000 0.037642
-0.45000000 0.15000000 0.75000000 0.037645
-0.35000000 -0.25000000 0.80000000 0.037651
0.10000000 0.80000000 0.65000000 0.037668
-0.85000000 0.50000000 -0.80000000 0.037668
-0.40000000 -0.30000000 0.80000000 0.037669
0.90000000 -0.35000000 0.60000000 0.037673
-0.05000000 0.85000000 -0.90000000 0.037673
0.85000000 -0.75000000 -0.65000000 0.037687
-0.70000000 0.00000000 0.75000000 0.037687
-0.55000000 0.40000000 0.70000000 0.037695
-0.60000000 -1.00000000 -0.75000000 0.037698
-0.05000000 -0.95000000 -0.95000000 0.037698
-0.80000000 0.60000000 0.60000000 0.037707
0.00000000 0.95000000 -0.85000000 0.037717
-0.10000000 0.05000000 0.75000000 0.037719
0.75000000 -0.75000000 0.55000000 0.037723
-0.05000000 0.95000000 -0.85000000 0.037724
-0.30000000 -0.40000000 0.80000000 0.037726
-0.05000000 0.00000000 0.75000000 0.037727
0.45000000 -0.40000000 0.70000000 0.037727
0.70000000 0.30000000 0.65000000 0.037737
-0.30000000 0.55000000 0.70000000 0.037742
0.60000000 -0.80000000 0.60000000 0.037743
0.55000000 0.90000000 -0.70000000 0.037750
-0.20000000 0.60000000 0.70000000 0.037756
-0.25000000 -0.35000000 0.80000000 0.037759
-0.50000000 0.65000000 0.65000000 0.037762
-0.90000000 0.65000000 -0.70000000 0.037763
-0.55000000 -0.70000000 0.70000000 0.037764
-0.85000000 -0.30000000 -0.95000000 0.037765
0.60000000 -0.55000000 0.65000000 0.037772
0.65000000 -0.45000000 0.65000000 0.037773
0.00000000 0.85000000 -0.90000000 0.037777
-0.30000000 0.70000000 -1.00000000 0.037786
-0.95000000 0.15000000 -0.90000000 0.037792
-0.35000000 0.15000000 0.75000000 0.037793
0.40000000 -0.55000000 0.70000000 0.037794
-0.25000000 -0.85000000 -1.00000000 0.037794
0.15000000 -0.35000000 0.75000000 0.037795
0.25000000 -0.80000000 0.70000000 0.037796
0.55000000 0.25000000 0.70000000 0.037801
-0.25000000 -1.00000000 0.70000000 0.037805
0.75000000 -0.10000000 -1.00000000 0.037806
0.00000000 -0.70000000 0.75000000 0.037806
-0.40000000 0.15000000 0.75000000 0.037813
-0.70000000 0.35000000 -1.00000000 0.037824
0.90000000 0.55000000 -0.70000000 0.037834
-0.85000000 0.05000000 -1.00000000 0.037844
-1.00000000 -0.60000000 -0.75000000 0.037852
0.40000000 -0.90000000 0.65000000 0.037863
-0.45000000 -0.60000000 0.75000000 0.037864
0.15000000 0.75000000 -1.00000000 0.037864
-0.85000000 -0.40000000 0.70000000 0.037875
-0.85000000 0.15000000 -0.95000000 0.037878
0.30000000 0.55000000 0.70000000 0.037879
-1.00000000 -0.30000000 0.70000000 0.037881
0.65000000 1.00000000 -0.60000000 0.037882
-0.65000000 0.05000000 0.75000000 0.037889
-0.45000000 0.85000000 0.60000000 0.037893
-0.30000000 -0.30000000 0.80000000 0.037897
0.50000000 0.35000000 0.70000000 0.037903
1.00000000 0.65000000 -0.60000000 0.037903
0.35000000 -0.65000000 0.70000000 0.037904
0.90000000 0.15000000 -0.85000000 0.037908
-0.35000000 -0.35000000 0.80000000 0.037913
0.35000000 -0.75000000 -0.95000000 0.037915
0.60000000 -0.75000000 -0.80000000 0.037918
-0.70000000 0.55000000 -0.85000000 0.037918
0.20000000 0.60000000 0.70000000 0.037919
0.65000000 0.55000000 0.60000000 0.037921
-0.80000000 -0.45000000 0.70000000 0.037925
0.60000000 -0.50000000 -0.95000000 0.037926
-0.40000000 -0.80000000 -0.95000000 0.037931
-0.70000000 -0.30000000 0.75000000 0.037933
-0.25000000 0.80000000 -0.90000000 0.037937
0.80000000 -0.90000000 -0.60000000 0.037945
-0.70000000 -0.50000000 -1.00000000 0.037945
0.55000000 0.65000000 0.60000000 0.037947
-0.65000000 0.60000000 -0.85000000 0.037949
0.20000000 -0.85000000 -0.95000000 0.037958
-0.35000000 -0.30000000 0.80000000 0.037964
0.60000000 0.55000000 -0.90000000 0.037974
-0.90000000 0.80000000 -0.60000000 0.037982
1.00000000 0.95000000 -0.30000000 0.037984
0.95000000 1.00000000 -0.30000000 0.037993
-0.85000000 -0.20000000 -1.00000000 0.037999
0.15000000 -0.50000000 0.75000000 0.037999
0.05000000 -0.15000000 0.75000000 0.038003
0.55000000 0.60000000 -0.90000000 0.038006
-0.30000000 -0.35000000 0.80000000 0.038007
-0.75000000 0.85000000 -0.65000000 0.038007
-0.20000000 0.80000000 0.65000000 0.038012
-0.20000000 0.10000000 0.75000000 0.038015
-0.15000000 0.75000000 -1.00000000 0.038016
-0.95000000 0.15000000 0.70000000 0.038023
-0.35000000 -0.80000000 -1.00000000 0.038024
0.60000000 0.45000000 0.65000000 0.038030
0.50000000 -0.20000000 0.70000000 0.038045
-0.85000000 -0.40000000 -0.90000000 0.038046
0.35000000 1.00000000 0.55000000 0.038052
0.80000000 0.80000000 0.40000000 0.038054
0.85000000 0.80000000 -0.55000000 0.038055
-0.50000000 0.60000000 -0.95000000 0.038057
0.80000000 0.85000000 -0.55000000 0.038059
0.95000000 -0.75000000 -0.60000000 0.038061
0.75000000 0.10000000 -1.00000000 0.038064
0.55000000 -0.05000000 0.70000000 0.038074
-0.35000000 0.70000000 -0.95000000 0.038076
-0.45000000 0.85000000 -0.80000000 0.038079
-0.75000000 0.40000000 -0.90000000 0.038079
-0.90000000 -0.45000000 -0.85000000 0.038081
-0.65000000 0.70000000 0.60000000 0.038082
0.45000000 -0.80000000 0.65000000 0.038085
-0.25000000 -1.00000000 -0.90000000 0.038091
-0.90000000 -0.35000000 0.70000000 0.038096
-0.85000000 -0.50000000 -0.85000000 0.038099
-0.75000000 -0.50000000 0.70000000 0.038100
-0.30000000 1.00000000 0.60000000 0.038101
0.15000000 -0.40000000 0.75000000 0.038107
-0.60000000 -0.65000000 0.70000000 0.038115
-0.70000000 0.30000000 0.70000000 0.038115
-0.25000000 -0.70000000 0.75000000 0.038120
0.75000000 -0.20000000 0.65000000 0.038133
-0.95000000 0.30000000 -0.85000000 0.038144
-0.90000000 0.20000000 -0.90000000 0.038148
1.00000000 -0.25000000 0.60000000 0.038151
0.85000000 0.40000000 -0.80000000 0.038153
-0.45000000 0.45000000 0.70000000 0.038159
-0.55000000 -0.90000000 -0.80000000 0.038166
0.60000000 0.60000000 0.60000000 0.038167
0.40000000 0.85000000 -0.80000000 0.038169
0.10000000 -0.90000000 -0.95000000 0.038175
-0.90000000 -0.55000000 -0.80000000 0.038189
0.10000000 -0.25000000 0.75000000 0.038192
0.15000000 -0.45000000 0.75000000 0.038197
-0.85000000 0.20000000 0.70000000 0.038203
1.00000000 -0.65000000 -0.65000000 0.038208
0.80000000 -0.80000000 -0.65000000 0.038211
0.50000000 0.95000000 0.50000000 0.038218
-0.75000000 0.75000000 0.55000000 0.038225
-0.20000000 0.90000000 -0.85000000 0.038229
-0.80000000 -0.90000000 -0.65000000 0.038231
-0.65000000 0.45000000 -0.95000000 0.038232
0.30000000 -0.85000000 -0.90000000 0.038236
0.65000000 -0.50000000 -0.90000000 0.038236
-0.60000000 -0.45000000 0.75000000 0.038240
-0.50000000 -1.00000000 -0.80000000 0.038241
-0.70000000 -0.55000000 0.70000000 0.038257
-1.00000000 0.10000000 -0.90000000 0.038260
0.30000000 -0.75000000 -1.00000000 0.038267
0.20000000 -0.85000000 0.70000000 0.038267
-0.50000000 -0.85000000 -0.85000000 0.038270
-0.90000000 -0.15000000 -0.95000000 0.038273
-0.45000000 -0.90000000 -0.85000000 0.038273
-0.50000000 -1.00000000 0.65000000 0.038275
0.75000000 -0.20000000 -0.95000000 0.038275
-0.80000000 0.80000000 -0.65000000 0.038280
-0.65000000 -0.60000000 0.70000000 0.038281
-0.90000000 -0.80000000 -0.65000000 0.038294
0.10000000 -0.60000000 0.75000000 0.038295
-1.00000000 -0.50000000 -0.80000000 0.038302
0.45000000 0.90000000 -0.75000000 0.038306
0.00000000 -0.10000000 0.75000000 0.038315
0.90000000 -0.70000000 -0.65000000 0.038318
0.80000000 -0.50000000 -0.80000000 0.038321
-0.35000000 0.75000000 -0.90000000 0.038328
0.45000000 0.60000000 0.65000000 0.038329
0.45000000 -0.35000000 0.70000000 0.038332
-0.90000000 -0.55000000 0.65000000 0.038334
-0.30000000 1.00000000 -0.80000000 0.038339
-0.90000000 0.00000000 -0.95000000 0.038342
-0.85000000 -0.95000000 -0.60000000 0.038351
-0.50000000 -0.70000000 -1.00000000 0.038357
0.10000000 -1.00000000 0.70000000 0.038366
-0.15000000 0.05000000 0.75000000 0.038369
0.95000000 -0.90000000 -0.50000000 0.038375
-0.55000000 0.10000000 0.75000000 0.038388
0.90000000 0.45000000 -0.75000000 0.038389
0.15000000 0.90000000 -0.85000000 0.038397
0.60000000 0.95000000 0.45000000 0.038398
0.60000000 -0.85000000 -0.75000000 0.038401
-0.50000000 -0.55000000 0.75000000 0.038405
0.15000000 -1.00000000 -0.90000000 0.038407
-0.95000000 -0.85000000 -0.60000000 0.038408
0.90000000 -0.50000000 -0.75000000 0.038412
-0.95000000 -0.95000000 -0.55000000 0.038416
1.00000000 0.35000000 0.55000000 0.038430
-0.30000000 0.85000000 -0.85000000 0.038436
0.05000000 -0.65000000 0.75000000 0.038437
1.00000000 -0.65000000 0.50000000 0.038442
0.60000000 0.45000000 -1.00000000 0.038446
-0.95000000 0.70000000 -0.65000000 0.038466
-0.45000000 1.00000000 -0.75000000 0.038468
1.00000000 -0.85000000 0.40000000 0.038475
-0.20000000 -0.90000000 -0.95000000 0.038482
-0.05000000 -0.05000000 0.75000000 0.038483
0.60000000 -0.65000000 -0.85000000 0.038485
-0.25000000 0.10000000 0.75000000 0.038494
0.55000000 -0.80000000 -0.80000000 0.038497
0.65000000 -0.90000000 -0.70000000 0.038499
0.85000000 -0.40000000 0.60000000 0.038506
-0.10000000 0.00000000 0.75000000 0.038509
0.75000000 0.85000000 0.40000000 0.038512
0.95000000 0.15000000 0.60000000 0.038532
-0.55000000 -0.50000000 0.75000000 0.038533
-0.80000000 -0.55000000 -0.85000000 0.038536
-0.30000000 -0.90000000 0.70000000 0.038536
0.80000000 0.35000000 0.60000000 0.038537
-0.75000000 0.95000000 -0.60000000 0.038542
0.80000000 0.20000000 -0.90000000 0.038542
0.90000000 -0.15000000 -0.85000000 0.038544
0.75000000 -0.45000000 -0.85000000 0.038551
0.75000000 -0.05000000 -1.00000000 0.038552
-0.40000000 -0.85000000 -0.90000000 0.038552
0.45000000 0.85000000 0.55000000 0.038555
-0.35000000 -0.65000000 0.75000000 0.038555
0.55000000 0.20000000 0.70000000 0.038558
-0.05000000 -0.70000000 0.75000000 0.038559
1.00000000 1.00000000 0.10000000 0.038565
0.80000000 -0.20000000 -0.90000000 0.038569
0.75000000 0.95000000 0.35000000 0.038574
0.85000000 0.75000000 0.40000000 0.038577
0.55000000 0.00000000 0.70000000 0.038580
0.95000000 0.50000000 0.50000000 0.038583
0.80000000 0.35000000 -0.85000000 0.038592
-0.35000000 0.50000000 0.70000000 0.038611
0.75000000 0.20000000 -0.95000000 0.038611
-0.50000000 0.65000000 -0.90000000 0.038614
0.30000000 0.70000000 0.65000000 0.038620
1.00000000 0.90000000 -0.35000000 0.038622
0.85000000 -0.55000000 -0.75000000 0.038626
-0.25000000 -0.95000000 0.70000000 0.038628
0.75000000 -0.90000000 0.50000000 0.038635
0.45000000 0.60000000 -1.00000000 0.038636
0.15000000 -0.90000000 0.70000000 0.038636
-0.90000000 0.45000000 -0.80000000 0.038640
0.90000000 1.00000000 -0.35000000 0.038645
0.60000000 -0.45000000 -1.00000000 0.038645
-0.65000000 -1.00000000 0.60000000 0.038649
-0.15000000 0.60000000 0.70000000 0.038649
0.80000000 -1.00000000 0.45000000 0.038653
0.75000000 0.15000000 0.65000000 0.038654
0.05000000 0.80000000 0.65000000 0.038657
0.55000000 0.50000000 0.65000000 0.038658
0.35000000 0.50000000 0.70000000 0.038661
0.95000000 0.60000000 0.45000000 0.038663
0.95000000 0.75000000 0.35000000 0.038663
0.45000000 0.40000000 0.70000000 0.038664
0.20000000 0.75000000 0.65000000 0.038668
0.40000000 0.90000000 0.55000000 0.038671
-0.55000000 -0.80000000 -0.85000000 0.038675
-0.70000000 -0.05000000 0.75000000 0.038680
0.50000000 -0.15000000 0.70000000 0.038685
-0.70000000 0.50000000 0.65000000 0.038686
0.75000000 -0.55000000 0.60000000 0.038689
0.90000000 0.90000000 0.25000000 0.038692
-0.40000000 0.70000000 0.65000000 0.038693
0.75000000 0.05000000 -1.00000000 0.038695
-0.80000000 -0.80000000 -0.70000000 0.038695
-0.95000000 -0.30000000 0.70000000 0.038698
0.35000000 0.80000000 0.60000000 0.038705
0.50000000 0.85000000 -0.75000000 0.038711
-0.55000000 0.55000000 -0.95000000 0.038720
-0.30000000 -0.85000000 -0.95000000 0.038726
1.00000000 -0.95000000 0.35000000 0.038727
1.00000000 -0.50000000 0.55000000 0.038727
-0.85000000 1.00000000 0.40000000 0.038729
0.30000000 -1.00000000 -0.85000000 0.038732
-0.60000000 0.35000000 0.70000000 0.038742
0.85000000 0.25000000 -0.85000000 0.038744
-0.90000000 0.95000000 -0.50000000 0.038750
-0.60000000 0.50000000 -0.95000000 0.038759
0.50000000 0.55000000 0.65000000 0.038760
0.10000000 -0.85000000 -1.00000000 0.038766
-0.20000000 -0.70000000 0.75000000 0.038772
0.85000000 0.50000000 -0.75000000 0.038777
1.00000000 -0.55000000 -0.70000000 0.038777
0.85000000 0.45000000 0.55000000 0.038777
0.05000000 -0.20000000 0.75000000 0.038778
0.35000000 0.80000000 -0.85000000 0.038784
0.40000000 -0.50000000 0.70000000 0.038800
-0.90000000 -0.10000000 -0.95000000 0.038800
0.70000000 0.50000000 -0.85000000 0.038814
-0.90000000 -0.05000000 -0.95000000 0.038821
-0.35000000 -0.85000000 0.70000000 0.038827
-0.95000000 -0.40000000 -0.85000000 0.038829
0.85000000 -0.75000000 0.50000000 0.038831
-0.85000000 0.00000000 -1.00000000 0.038833
0.10000000 -0.30000000 0.75000000 0.038849
0.15000000 0.95000000 0.60000000 0.038851
0.75000000 0.00000000 -1.00000000 0.038855
0.45000000 -0.30000000 0.70000000 0.038857
-0.30000000 0.75000000 0.65000000 0.038867
-0.15000000 0.80000000 0.65000000 0.038873
-0.70000000 0.90000000 -0.65000000 0.038873
0.90000000 -0.70000000 0.50000000 0.038874
-0.85000000 -0.85000000 0.55000000 0.038875
0.50000000 0.70000000 -0.85000000 0.038876
1.00000000 -0.80000000 -0.55000000 0.038882
0.70000000 -0.95000000 -0.65000000 0.038884
-0.95000000 -0.25000000 -0.90000000 0.038893
0.85000000 -0.65000000 -0.70000000 0.038905
-0.70000000 -0.25000000 0.75000000 0.038907
0.15000000 0.60000000 0.70000000 0.038914
-0.30000000 0.10000000 0.75000000 0.038919
-0.25000000 0.55000000 0.70000000 0.038921
0.40000000 0.45000000 0.70000000 0.038922
0.40000000 -0.85000000 -0.85000000 0.038922
0.55000000 -0.70000000 -0.85000000 0.038929
0.55000000 0.05000000 0.70000000 0.038932
-0.90000000 -0.95000000 0.50000000 0.038938
0.40000000 -0.70000000 -0.95000000 0.038938
1.00000000 0.10000000 0.60000000 0.038938
0.95000000 -0.30000000 -0.80000000 0.038946
-0.85000000 -0.15000000 -1.00000000 0.038947
0.40000000 0.95000000 -0.75000000 0.038950
0.45000000 -0.80000000 -0.85000000 0.038950
0.90000000 0.40000000 0.55000000 0.038957
0.90000000 0.20000000 0.60000000 0.038958
-0.95000000 -0.90000000 0.50000000 0.038966
-0.65000000 1.00000000 -0.65000000 0.038969
0.55000000 0.15000000 0.70000000 0.038972
-0.55000000 0.60000000 0.65000000 0.038973
0.70000000 -0.30000000 0.65000000 0.038974
-0.50000000 0.80000000 0.60000000 0.038977
0.50000000 0.80000000 0.55000000 0.038983
-0.10000000 -0.70000000 0.75000000 0.038983
0.50000000 -0.70000000 0.65000000 0.038985
-0.45000000 0.60000000 -1.00000000 0.038991
-1.00000000 0.40000000 -0.80000000 0.038993
0.30000000 -0.70000000 0.70000000 0.039005
-0.50000000 0.10000000 0.75000000 0.039005
-0.65000000 1.00000000 0.50000000 0.039009
-0.90000000 0.55000000 -0.75000000 0.039020
0.70000000 -0.25000000 -1.00000000 0.039023
0.10000000 -0.95000000 0.70000000 0.039029
0.50000000 -0.75000000 -0.85000000 0.039031
-0.20000000 0.05000000 0.75000000 0.039039
0.95000000 0.40000000 -0.75000000 0.039043
-0.70000000 0.45000000 -0.90000000 0.039044
-0.40000000 -0.95000000 -0.85000000 0.039052
-0.75000000 0.25000000 0.70000000 0.039053
-0.75000000 -0.60000000 -0.85000000 0.039057
-1.00000000 -0.20000000 -0.90000000 0.039057
-0.15000000 -0.70000000 0.75000000 0.039058
0.55000000 -0.55000000 -0.95000000 0.039059
-0.90000000 0.75000000 0.50000000 0.039065
0.25000000 0.85000000 -0.85000000 0.039073
-0.90000000 0.15000000 0.70000000 0.039073
1.00000000 1.00000000 -0.25000000 0.039076
-0.65000000 -0.55000000 -1.00000000 0.039077
0.75000000 -0.15000000 0.65000000 0.039078
0.55000000 0.10000000 0.70000000 0.039080
0.65000000 -0.70000000 0.60000000 0.039087
-0.80000000 0.15000000 -1.00000000 0.039094
-0.75000000 0.25000000 -1.00000000 0.039104
0.35000000 -0.80000000 -0.90000000 0.039105
0.10000000 0.75000000 -1.00000000 0.039108
-0.85000000 0.25000000 -0.90000000 0.039118
-0.50000000 0.40000000 0.70000000 0.039118
-0.60000000 0.05000000 0.75000000 0.039139
-0.95000000 1.00000000 0.35000000 0.039140
0.80000000 0.50000000 0.55000000 0.039145
-0.60000000 -0.75000000 -0.85000000 0.039149
-0.20000000 -1.00000000 0.70000000 0.039155
0.20000000 0.80000000 -0.90000000 0.039157
0.00000000 -0.15000000 0.75000000 0.039157
-0.75000000 -0.45000000 -0.95000000 0.039185
-0.10000000 0.75000000 -1.00000000 0.039187
-0.65000000 0.40000000 -1.00000000 0.039191
-0.75000000 -0.85000000 -0.70000000 0.039194
-0.65000000 -0.35000000 0.75000000 0.039210
0.50000000 -0.85000000 -0.80000000 0.039215
-1.00000000 -0.65000000 0.60000000 0.039218
0.95000000 -0.45000000 -0.75000000 0.039220
0.90000000 -0.95000000 -0.50000000 0.039227
0.10000000 -0.55000000 0.75000000 0.039227
-0.35000000 0.10000000 0.75000000 0.039236
0.20000000 -0.80000000 -1.00000000 0.039238
0.35000000 -0.90000000 -0.85000000 0.039240
-1.00000000 0.80000000 0.45000000 0.039241
-0.85000000 -0.75000000 -0.70000000 0.039251
-0.75000000 0.30000000 -0.95000000 0.039255
0.20000000 0.90000000 0.60000000 0.039265
-0.75000000 -1.00000000 -0.65000000 0.039271
0.00000000 0.80000000 0.65000000 0.039276
-0.65000000 0.00000000 0.75000000 0.039284
0.50000000 0.30000000 0.70000000 0.039285
-0.50000000 0.80000000 -0.80000000 0.039292
-0.55000000 -0.65000000 -1.00000000 0.039293
0.80000000 -0.70000000 -0.70000000 0.039293
0.90000000 -0.60000000 -0.70000000 0.039293
-0.80000000 1.00000000 -0.55000000 0.039294
0.90000000 0.10000000 -0.85000000 0.039303
-0.50000000 -0.95000000 0.65000000 0.039306
0.50000000 -0.10000000 0.70000000 0.039315
-0.70000000 -0.10000000 0.75000000 0.039329
-0.45000000 0.10000000 0.75000000 0.039330
0.50000000 0.95000000 -0.70000000 0.039330
-0.15000000 0.00000000 0.75000000 0.039334
-0.10000000 0.60000000 0.70000000 0.039338
0.95000000 -0.25000000 0.60000000 0.039341
0.10000000 1.00000000 0.60000000 0.039346
0.45000000 -0.25000000 0.70000000 0.039350
0.20000000 0.75000000 -0.95000000 0.039358
-0.75000000 0.85000000 0.50000000 0.039359
-0.85000000 -0.05000000 -1.00000000 0.039361
-1.00000000 0.10000000 0.70000000 0.039366
0.65000000 -0.90000000 0.55000000 0.039368
-0.05000000 -0.10000000 0.75000000 0.039370
-0.10000000 0.80000000 0.65000000 0.039380
0.35000000 -0.60000000 0.70000000 0.039382
-1.00000000 0.60000000 -0.70000000 0.039389
-0.85000000 0.40000000 0.65000000 0.039391
-0.40000000 0.10000000 0.75000000 0.039391
-0.40000000 -0.80000000 0.70000000 0.039393
-0.60000000 -0.95000000 -0.75000000 0.039401
-0.85000000 -0.10000000 -1.00000000 0.039403
-0.70000000 -0.65000000 -0.85000000 0.039405
0.90000000 -0.35000000 -0.80000000 0.039407
-1.00000000 -0.75000000 -0.65000000 0.039410
0.90000000 -0.55000000 0.55000000 0.039415
0.10000000 -0.35000000 0.75000000 0.039417
0.55000000 0.50000000 -1.00000000 0.039422
0.25000000 0.55000000 0.70000000 0.039427
-0.80000000 -0.45000000 -0.90000000 0.039428
0.80000000 -0.60000000 -0.75000000 0.039431
-0.10000000 -0.05000000 0.75000000 0.039433
-0.65000000 -0.70000000 -0.85000000 0.039438
-0.30000000 0.95000000 0.60000000 0.039439
0.95000000 0.50000000 -0.70000000 0.039439
-0.40000000 0.45000000 0.70000000 0.039443
-0.70000000 0.90000000 0.50000000 0.039448
-0.20000000 -0.85000000 -1.00000000 0.039449
-1.00000000 -0.50000000 0.65000000 0.039458
1.00000000 -0.75000000 0.45000000 0.039460
0.65000000 -0.40000000 0.65000000 0.039461
-0.70000000 -0.20000000 0.75000000 0.039462
0.90000000 0.75000000 -0.55000000 0.039476
0.85000000 0.85000000 -0.50000000 0.039481
-0.80000000 -0.30000000 -1.00000000 0.039483
0.75000000 0.90000000 -0.55000000 0.039485
0.50000000 0.55000000 -1.00000000 0.039487
-0.70000000 0.65000000 0.60000000 0.039502
0.05000000 -0.90000000 -0.95000000 0.039507
-0.65000000 -0.75000000 0.65000000 0.039513
0.95000000 -1.00000000 0.35000000 0.039513
-0.05000000 0.80000000 0.65000000 0.039517
-0.65000000 0.85000000 -0.70000000 0.039519
-0.45000000 0.75000000 -0.85000000 0.039532
0.45000000 -0.65000000 -0.95000000 0.039534
0.65000000 0.35000000 0.65000000 0.039536
-0.50000000 0.90000000 -0.75000000 0.039542
-0.95000000 -0.60000000 -0.75000000 0.039542
-0.60000000 -0.60000000 -1.00000000 0.039546
-0.55000000 0.60000000 -0.90000000 0.039556
-0.75000000 -0.40000000 -1.00000000 0.039556
0.40000000 -0.45000000 0.70000000 0.039558
0.70000000 0.40000000 -0.90000000 0.039559
-0.55000000 0.85000000 -0.75000000 0.039561
-0.70000000 -0.70000000 0.65000000 0.039567
0.85000000 -0.25000000 -0.85000000 0.039567
0.05000000 -1.00000000 0.70000000 0.039571
0.85000000 -0.60000000 0.55000000 0.039571
0.35000000 -1.00000000 0.65000000 0.039575
-0.90000000 0.65000000 0.55000000 0.039576
0.75000000 0.10000000 0.65000000 0.039577
-0.85000000 0.75000000 -0.65000000 0.039581
0.70000000 0.25000000 -1.00000000 0.039583
0.10000000 0.60000000 0.70000000 0.039586
0.05000000 -0.25000000 0.75000000 0.039586
0.55000000 0.75000000 0.55000000 0.039592
0.50000000 -0.60000000 -0.95000000 0.039593
-0.70000000 0.80000000 -0.70000000 0.039596
-0.70000000 -0.15000000 0.75000000 0.039598
0.55000000 0.80000000 -0.75000000 0.039599
1.00000000 -0.20000000 0.60000000 0.039605
0.80000000 -0.35000000 -0.85000000 0.039615
0.00000000 -0.65000000 0.75000000 0.039616
0.95000000 0.25000000 -0.80000000 0.039617
0.55000000 -0.60000000 0.65000000 0.039624
-0.95000000 0.90000000 -0.50000000 0.039624
-1.00000000 0.35000000 0.65000000 0.039639
0.60000000 -0.55000000 -0.90000000 0.039640
0.80000000 0.55000000 -0.75000000 0.039647
1.00000000 -0.95000000 -0.45000000 0.039649
-0.90000000 -0.30000000 -0.90000000 0.039665
0.65000000 -0.40000000 -0.95000000 0.039672
-0.20000000 0.75000000 -0.95000000 0.039679
0.70000000 0.25000000 0.65000000 0.039684
-0.25000000 0.05000000 0.75000000 0.039688
0.65000000 -0.35000000 -1.00000000 0.039691
-1.00000000 0.05000000 -0.90000000 0.039695
-0.60000000 -0.80000000 0.65000000 0.039698
0.75000000 0.55000000 0.55000000 0.039698
-0.95000000 0.10000000 -0.90000000 0.039701
-0.65000000 0.50000000 -0.90000000 0.039702
-0.25000000 -0.95000000 -0.90000000 0.039704
-0.40000000 -0.60000000 0.75000000 0.039707
0.90000000 -0.10000000 -0.85000000 0.039711
0.35000000 0.95000000 0.55000000 0.039714
1.00000000 -0.25000000 -0.80000000 0.039715
0.35000000 -0.70000000 -1.00000000 0.039723
-1.00000000 -0.25000000 0.70000000 0.039727
-0.15000000 -0.90000000 -0.95000000 0.039727
0.60000000 -0.50000000 0.65000000 0.039728
0.25000000 0.95000000 -0.80000000 0.039736
-0.45000000 -0.75000000 -0.95000000 0.039741
-0.75000000 1.00000000 0.45000000 0.039743
0.25000000 -0.80000000 -0.95000000 0.039757
-0.85000000 -0.25000000 -0.95000000 0.039759
0.25000000 -0.75000000 0.70000000 0.039760
0.75000000 -0.85000000 -0.65000000 0.039761
-0.85000000 0.10000000 -0.95000000 0.039765
0.90000000 -0.85000000 -0.55000000 0.039772
0.10000000 -0.50000000 0.75000000 0.039775
0.75000000 -0.10000000 0.65000000 0.039780
0.65000000 0.40000000 -0.95000000 0.039783
-0.35000000 0.90000000 0.60000000 0.039790
-0.05000000 0.60000000 0.70000000 0.039799
-0.15000000 0.90000000 -0.85000000 0.039799
-0.80000000 -0.90000000 0.55000000 0.039801
0.40000000 0.70000000 -0.90000000 0.039802
-0.30000000 0.50000000 0.70000000 0.039803
0.90000000 -0.30000000 0.60000000 0.039803
0.40000000 -0.85000000 0.65000000 0.039805
-0.30000000 -0.65000000 0.75000000 0.039805
0.70000000 -0.30000000 -0.95000000 0.039806
-0.65000000 0.30000000 0.70000000 0.039808
0.10000000 -0.40000000 0.75000000 0.039812
-0.75000000 -0.65000000 0.65000000 0.039814
-0.55000000 1.00000000 -0.70000000 0.039817
0.05000000 -0.60000000 0.75000000 0.039820
-0.75000000 -0.80000000 0.60000000 0.039822
0.70000000 -0.40000000 -0.90000000 0.039832
0.70000000 -0.80000000 0.55000000 0.039832
0.45000000 -0.20000000 0.70000000 0.039846
-0.80000000 0.20000000 0.70000000 0.039862
-1.00000000 0.75000000 -0.60000000 0.039862
-0.45000000 -0.80000000 -0.90000000 0.039868
