//X Y Z Consensus 
-0.90000000 0.10000000 -0.95000000 0.000777
-0.95000000 -0.60000000 -0.95000000 0.000777
-1.00000000 0.80000000 -0.80000000 0.000777
0.00000000 -0.60000000 0.55000000 0.000777
0.10000000 0.55000000 0.50000000 0.000777
0.40000000 0.05000000 0.30000000 0.000777
0.45000000 0.30000000 0.30000000 0.000777
0.45000000 0.35000000 -0.75000000 0.000777
0.60000000 -0.70000000 0.35000000 0.000777
0.65000000 -0.35000000 -0.80000000 0.000777
0.70000000 0.20000000 -0.80000000 0.000777
0.75000000 0.95000000 0.45000000 0.000777
0.90000000 -1.00000000 -0.85000000 0.000777
0.90000000 0.30000000 -0.85000000 0.000777
0.95000000 0.80000000 -0.85000000 0.000777
1.00000000 -0.80000000 -0.90000000 0.000777
-0.05000000 -0.55000000 -0.75000000 0.000778
-0.15000000 0.60000000 0.70000000 0.000778
-0.30000000 -0.50000000 0.80000000 0.000778
-0.35000000 -0.65000000 -0.90000000 0.000778
-0.35000000 0.60000000 -0.95000000 0.000778
-0.45000000 -0.25000000 0.95000000 0.000778
-0.45000000 0.35000000 0.70000000 0.000778
-0.55000000 -0.40000000 0.80000000 0.000778
-0.55000000 -0.50000000 0.90000000 0.000778
-0.55000000 0.45000000 0.80000000 0.000778
-0.75000000 -1.00000000 -0.90000000 0.000778
-0.75000000 0.45000000 -0.90000000 0.000778
-0.75000000 0.70000000 -0.95000000 0.000778
-0.80000000 -0.35000000 0.40000000 0.000778
-0.95000000 -0.10000000 -0.85000000 0.000778
0.00000000 -0.35000000 0.55000000 0.000778
0.00000000 -0.65000000 0.55000000 0.000778
0.05000000 0.70000000 -0.75000000 0.000778
0.30000000 -0.70000000 -0.75000000 0.000778
0.30000000 0.30000000 -0.75000000 0.000778
0.60000000 0.40000000 -0.75000000 0.000778
0.60000000 0.45000000 -0.75000000 0.000778
0.70000000 0.50000000 -0.75000000 0.000778
0.80000000 0.10000000 0.50000000 0.000778
0.85000000 0.45000000 -0.80000000 0.000778
0.95000000 -0.20000000 -0.85000000 0.000778
0.95000000 -0.55000000 0.65000000 0.000778
1.00000000 -0.35000000 -0.85000000 0.000778
1.00000000 -1.00000000 -0.95000000 0.000778
1.00000000 0.80000000 -0.85000000 0.000778
-0.05000000 1.00000000 -0.75000000 0.000779
-0.10000000 0.30000000 0.65000000 0.000779
-0.15000000 0.65000000 0.40000000 0.000779
-0.30000000 0.50000000 0.35000000 0.000779
-0.35000000 -0.75000000 0.85000000 0.000779
-0.35000000 0.45000000 -0.95000000 0.000779
-0.40000000 -0.35000000 0.35000000 0.000779
-0.45000000 -0.20000000 0.70000000 0.000779
-0.50000000 -0.30000000 0.75000000 0.000779
-0.60000000 0.15000000 1.00000000 0.000779
-0.70000000 0.60000000 0.40000000 0.000779
-0.80000000 0.95000000 -1.00000000 0.000779
-0.85000000 0.60000000 -0.85000000 0.000779
-0.90000000 -0.85000000 -0.85000000 0.000779
-0.90000000 0.30000000 0.40000000 0.000779
-0.90000000 0.85000000 -0.80000000 0.000779
-1.00000000 -0.05000000 -0.90000000 0.000779
0.35000000 -0.45000000 -0.75000000 0.000779
0.35000000 -0.80000000 -0.75000000 0.000779
0.35000000 -1.00000000 -0.75000000 0.000779
0.45000000 0.60000000 -0.75000000 0.000779
0.75000000 -0.30000000 -0.80000000 0.000779
0.85000000 0.30000000 -0.80000000 0.000779
1.00000000 -0.90000000 0.70000000 0.000779
-0.15000000 -0.60000000 -0.80000000 0.000779
-0.15000000 0.85000000 0.70000000 0.000779
-0.20000000 -0.95000000 -0.80000000 0.000779
-0.20000000 0.50000000 0.35000000 0.000779
-0.25000000 0.55000000 -0.85000000 0.000779
-0.40000000 -0.15000000 0.65000000 0.000779
-0.50000000 -0.10000000 0.35000000 0.000779
-0.50000000 0.95000000 1.00000000 0.000779
-0.55000000 -0.80000000 0.80000000 0.000779
-0.55000000 0.00000000 0.85000000 0.000779
-0.60000000 -0.25000000 1.00000000 0.000779
-0.60000000 0.05000000 0.90000000 0.000779
-0.65000000 -0.90000000 0.40000000 0.000779
-0.65000000 0.65000000 0.90000000 0.000779
-0.75000000 -0.25000000 -0.90000000 0.000779
-0.75000000 -0.65000000 0.40000000 0.000779
-0.75000000 -0.95000000 -0.85000000 0.000779
-0.80000000 -0.20000000 -1.00000000 0.000779
-0.80000000 0.10000000 -0.90000000 0.000779
-0.80000000 0.70000000 -0.85000000 0.000779
-0.90000000 0.70000000 -0.80000000 0.000779
-1.00000000 -0.50000000 -1.00000000 0.000779
0.10000000 -0.10000000 -0.75000000 0.000779
0.10000000 0.60000000 0.50000000 0.000779
0.15000000 -0.85000000 -0.75000000 0.000779
0.20000000 0.30000000 -0.75000000 0.000779
0.25000000 -0.60000000 -0.75000000 0.000779
0.35000000 -0.55000000 -0.75000000 0.000779
0.35000000 0.35000000 -0.75000000 0.000779
0.35000000 0.80000000 -0.75000000 0.000779
0.55000000 0.15000000 -0.75000000 0.000779
0.70000000 0.95000000 -0.75000000 0.000779
0.75000000 -0.25000000 -0.80000000 0.000779
0.90000000 -0.10000000 0.60000000 0.000779
0.95000000 0.35000000 -0.85000000 0.000779
-0.05000000 0.70000000 -0.75000000 0.000780
-0.15000000 0.75000000 0.70000000 0.000780
-0.30000000 0.10000000 -0.90000000 0.000780
-0.40000000 -0.55000000 0.35000000 0.000780
-0.45000000 -0.60000000 0.95000000 0.000780
-0.55000000 -0.60000000 0.85000000 0.000780
-0.55000000 0.70000000 0.80000000 0.000780
-0.70000000 0.70000000 0.40000000 0.000780
-0.75000000 -0.50000000 -0.95000000 0.000780
-0.75000000 -0.80000000 -0.90000000 0.000780
-0.80000000 -0.45000000 -0.90000000 0.000780
-1.00000000 0.05000000 -0.85000000 0.000780
0.05000000 -0.70000000 -0.75000000 0.000780
0.15000000 1.00000000 -0.75000000 0.000780
0.20000000 0.45000000 -0.75000000 0.000780
0.50000000 0.50000000 -0.75000000 0.000780
0.65000000 0.60000000 -0.75000000 0.000780
0.70000000 0.75000000 -0.75000000 0.000780
0.75000000 0.85000000 0.45000000 0.000780
0.80000000 0.25000000 -0.80000000 0.000780
0.95000000 -0.65000000 -0.85000000 0.000780
-0.10000000 0.80000000 -0.75000000 0.000781
-0.15000000 -0.35000000 0.40000000 0.000781
-0.15000000 0.55000000 0.70000000 0.000781
-0.25000000 -0.30000000 -0.85000000 0.000781
-0.25000000 -0.90000000 0.75000000 0.000781
-0.45000000 0.25000000 0.95000000 0.000781
-0.60000000 0.45000000 0.90000000 0.000781
-0.70000000 0.65000000 0.40000000 0.000781
-0.70000000 0.75000000 0.40000000 0.000781
-0.75000000 -0.55000000 -0.90000000 0.000781
-0.75000000 -0.90000000 -0.85000000 0.000781
-0.75000000 -0.90000000 -0.95000000 0.000781
-0.80000000 0.95000000 -0.75000000 0.000781
-0.85000000 0.35000000 -0.85000000 0.000781
-0.90000000 -0.45000000 -0.85000000 0.000781
-0.95000000 -0.45000000 -0.85000000 0.000781
-0.95000000 -1.00000000 -0.80000000 0.000781
0.10000000 0.85000000 -0.75000000 0.000781
0.15000000 -0.40000000 -0.75000000 0.000781
0.15000000 -0.75000000 -0.75000000 0.000781
0.30000000 -0.20000000 -0.75000000 0.000781
0.40000000 0.50000000 -0.75000000 0.000781
0.70000000 0.80000000 -0.75000000 0.000781
0.90000000 -0.80000000 -0.85000000 0.000781
0.90000000 0.75000000 -0.80000000 0.000781
-0.05000000 -1.00000000 -0.75000000 0.000781
-0.15000000 0.90000000 0.70000000 0.000781
-0.25000000 -0.40000000 0.75000000 0.000781
-0.30000000 0.00000000 -0.90000000 0.000781
-0.35000000 -0.15000000 0.85000000 0.000781
-0.35000000 0.85000000 -0.95000000 0.000781
-0.35000000 1.00000000 -0.95000000 0.000781
-0.40000000 -0.80000000 0.65000000 0.000781
-0.40000000 -0.95000000 -0.95000000 0.000781
-0.45000000 -0.50000000 0.95000000 0.000781
-0.65000000 0.90000000 1.00000000 0.000781
-0.75000000 0.45000000 0.40000000 0.000781
-0.75000000 0.55000000 -0.90000000 0.000781
-0.80000000 -0.75000000 -0.90000000 0.000781
-0.85000000 -0.15000000 -0.90000000 0.000781
-0.85000000 0.30000000 0.40000000 0.000781
-0.90000000 -0.40000000 -0.85000000 0.000781
-0.90000000 0.20000000 -0.85000000 0.000781
-0.90000000 0.90000000 -0.80000000 0.000781
-0.95000000 -0.50000000 -0.85000000 0.000781
-0.95000000 0.90000000 -0.80000000 0.000781
-1.00000000 0.35000000 -0.85000000 0.000781
0.00000000 -0.40000000 -0.75000000 0.000781
0.30000000 -0.25000000 -0.75000000 0.000781
0.60000000 0.70000000 -0.75000000 0.000781
0.95000000 -0.35000000 0.65000000 0.000781
-0.05000000 -0.05000000 0.60000000 0.000782
-0.15000000 -0.65000000 -0.80000000 0.000782
-0.15000000 0.35000000 0.40000000 0.000782
-0.20000000 0.70000000 -0.85000000 0.000782
-0.25000000 -0.80000000 0.50000000 0.000782
-0.35000000 -0.55000000 0.60000000 0.000782
-0.40000000 0.85000000 0.95000000 0.000782
-0.55000000 -0.30000000 0.80000000 0.000782
-0.60000000 -0.10000000 0.85000000 0.000782
-0.65000000 1.00000000 0.40000000 0.000782
-0.75000000 -0.45000000 -0.90000000 0.000782
-0.75000000 -0.45000000 -0.95000000 0.000782
-0.75000000 -1.00000000 -0.95000000 0.000782
-0.75000000 0.35000000 -0.95000000 0.000782
-0.80000000 -0.30000000 -1.00000000 0.000782
-0.85000000 0.30000000 -0.85000000 0.000782
-0.90000000 -0.55000000 -0.80000000 0.000782
-0.90000000 -0.75000000 -0.80000000 0.000782
0.10000000 -0.15000000 -0.75000000 0.000782
0.10000000 -0.85000000 -0.75000000 0.000782
0.50000000 -0.85000000 -0.75000000 0.000782
0.60000000 -0.85000000 0.35000000 0.000782
1.00000000 -0.50000000 0.70000000 0.000782
-0.20000000 -0.40000000 0.70000000 0.000783
-0.25000000 -0.60000000 0.50000000 0.000783
-0.25000000 1.00000000 0.80000000 0.000783
-0.35000000 -0.10000000 0.85000000 0.000783
-0.45000000 -0.35000000 0.70000000 0.000783
-0.45000000 -0.50000000 -1.00000000 0.000783
-0.70000000 0.95000000 -0.90000000 0.000783
-0.80000000 0.60000000 0.40000000 0.000783
-0.85000000 -0.50000000 -0.90000000 0.000783
-0.85000000 -0.65000000 -0.85000000 0.000783
-0.85000000 1.00000000 -0.80000000 0.000783
-0.95000000 -0.10000000 0.40000000 0.000783
-0.95000000 -0.50000000 -0.80000000 0.000783
-1.00000000 0.20000000 -0.85000000 0.000783
0.20000000 -0.35000000 0.40000000 0.000783
0.40000000 -0.65000000 -0.75000000 0.000783
1.00000000 -0.35000000 0.70000000 0.000783
1.00000000 -0.55000000 0.70000000 0.000783
1.00000000 -1.00000000 -0.90000000 0.000783
-0.15000000 0.85000000 0.40000000 0.000783
-0.25000000 -0.90000000 0.35000000 0.000783
-0.30000000 -0.90000000 0.80000000 0.000783
-0.30000000 -0.95000000 0.80000000 0.000783
-0.40000000 -0.05000000 0.90000000 0.000783
-0.40000000 -0.75000000 0.65000000 0.000783
-0.40000000 0.90000000 0.90000000 0.000783
-0.45000000 -1.00000000 0.70000000 0.000783
-0.55000000 -0.60000000 0.90000000 0.000783
-0.55000000 -1.00000000 0.90000000 0.000783
-0.55000000 0.05000000 0.35000000 0.000783
-0.65000000 0.45000000 0.90000000 0.000783
-0.65000000 0.85000000 0.40000000 0.000783
-0.80000000 0.75000000 -1.00000000 0.000783
-0.85000000 0.65000000 -0.85000000 0.000783
-0.90000000 -0.15000000 -0.90000000 0.000783
-0.90000000 -0.55000000 -0.85000000 0.000783
-0.90000000 0.00000000 -0.90000000 0.000783
-0.90000000 0.10000000 -0.85000000 0.000783
-0.95000000 -0.45000000 -0.90000000 0.000783
0.10000000 -0.60000000 -0.75000000 0.000783
0.15000000 -0.55000000 -0.75000000 0.000783
0.20000000 -0.70000000 -0.75000000 0.000783
0.20000000 -0.90000000 -0.75000000 0.000783
0.25000000 0.20000000 -0.75000000 0.000783
0.45000000 -0.25000000 -0.75000000 0.000783
0.60000000 -0.80000000 0.35000000 0.000783
0.65000000 -0.45000000 -0.80000000 0.000783
-0.05000000 -0.10000000 0.60000000 0.000784
-0.05000000 0.00000000 0.60000000 0.000784
-0.05000000 0.35000000 -0.75000000 0.000784
-0.15000000 -0.60000000 0.40000000 0.000784
-0.15000000 0.45000000 0.35000000 0.000784
-0.15000000 0.45000000 0.40000000 0.000784
-0.15000000 0.50000000 0.35000000 0.000784
-0.20000000 0.40000000 0.75000000 0.000784
-0.25000000 0.05000000 -0.85000000 0.000784
-0.30000000 -0.75000000 0.55000000 0.000784
-0.30000000 -1.00000000 0.80000000 0.000784
-0.40000000 0.30000000 -1.00000000 0.000784
-0.45000000 0.60000000 0.95000000 0.000784
-0.60000000 0.25000000 0.90000000 0.000784
-0.65000000 0.95000000 1.00000000 0.000784
-0.75000000 -0.30000000 -0.95000000 0.000784
-0.75000000 -0.75000000 0.40000000 0.000784
-0.80000000 -0.10000000 -0.95000000 0.000784
-0.80000000 1.00000000 -0.75000000 0.000784
-0.85000000 -0.65000000 -0.90000000 0.000784
-0.85000000 0.10000000 -0.90000000 0.000784
-0.90000000 -0.25000000 0.40000000 0.000784
-0.90000000 0.10000000 0.40000000 0.000784
-0.90000000 0.60000000 -0.80000000 0.000784
-0.95000000 0.25000000 -0.85000000 0.000784
-1.00000000 -0.15000000 -0.85000000 0.000784
0.00000000 -0.10000000 -0.75000000 0.000784
0.05000000 -0.80000000 0.50000000 0.000784
0.25000000 0.15000000 -0.75000000 0.000784
0.60000000 0.25000000 -0.75000000 0.000784
0.65000000 0.45000000 -0.75000000 0.000784
0.70000000 -1.00000000 -0.80000000 0.000784
0.75000000 0.30000000 -0.75000000 0.000784
0.75000000 0.95000000 -0.75000000 0.000784
0.80000000 -0.35000000 -0.80000000 0.000784
0.80000000 0.65000000 -0.80000000 0.000784
1.00000000 -0.65000000 0.45000000 0.000784
1.00000000 0.85000000 -0.85000000 0.000784
-0.25000000 0.65000000 0.80000000 0.000785
-0.30000000 -0.75000000 0.35000000 0.000785
-0.30000000 0.70000000 0.85000000 0.000785
-0.45000000 -0.35000000 -1.00000000 0.000785
-0.50000000 -0.45000000 0.75000000 0.000785
-0.50000000 -0.45000000 1.00000000 0.000785
-0.55000000 -0.80000000 0.85000000 0.000785
-0.65000000 -0.75000000 1.00000000 0.000785
-0.70000000 1.00000000 -0.80000000 0.000785
-0.75000000 -0.30000000 -0.90000000 0.000785
-0.75000000 0.15000000 -0.90000000 0.000785
-0.75000000 0.50000000 -0.95000000 0.000785
-0.80000000 0.00000000 -0.90000000 0.000785
-0.85000000 -0.20000000 -0.90000000 0.000785
-0.85000000 1.00000000 -0.75000000 0.000785
0.00000000 -0.60000000 -0.75000000 0.000785
0.15000000 -0.95000000 -0.75000000 0.000785
0.20000000 -0.30000000 0.40000000 0.000785
0.25000000 0.80000000 0.40000000 0.000785
0.55000000 -0.80000000 -0.80000000 0.000785
0.60000000 -0.50000000 -0.80000000 0.000785
0.65000000 0.25000000 -0.75000000 0.000785
0.80000000 0.15000000 -0.80000000 0.000785
0.85000000 -0.05000000 0.55000000 0.000785
0.90000000 0.35000000 -0.80000000 0.000785
0.95000000 0.20000000 -0.85000000 0.000785
-0.05000000 0.60000000 -0.75000000 0.000785
-0.10000000 0.35000000 0.65000000 0.000785
-0.10000000 1.00000000 -0.75000000 0.000785
-0.45000000 0.65000000 0.95000000 0.000785
-0.55000000 -0.20000000 0.80000000 0.000785
-0.70000000 0.30000000 -0.90000000 0.000785
-0.75000000 -0.35000000 -0.95000000 0.000785
-0.75000000 -0.80000000 0.40000000 0.000785
-0.80000000 -0.30000000 -0.95000000 0.000785
-0.85000000 0.55000000 -0.90000000 0.000785
-0.85000000 0.65000000 -0.90000000 0.000785
-0.90000000 -0.35000000 -0.85000000 0.000785
-0.90000000 0.15000000 -0.85000000 0.000785
-0.95000000 -0.25000000 0.40000000 0.000785
0.20000000 0.15000000 -0.75000000 0.000785
0.30000000 -1.00000000 -0.75000000 0.000785
0.35000000 -0.05000000 -0.75000000 0.000785
0.45000000 0.45000000 -0.75000000 0.000785
0.50000000 -0.20000000 0.30000000 0.000785
0.70000000 -0.70000000 -0.80000000 0.000785
0.80000000 0.55000000 -0.75000000 0.000785
0.80000000 0.80000000 -0.75000000 0.000785
0.95000000 1.00000000 -0.80000000 0.000785
1.00000000 -0.25000000 0.70000000 0.000785
-0.05000000 -0.70000000 -0.75000000 0.000786
-0.10000000 -0.35000000 -0.75000000 0.000786
-0.15000000 0.50000000 0.40000000 0.000786
-0.15000000 0.50000000 0.70000000 0.000786
-0.40000000 -0.45000000 0.35000000 0.000786
-0.45000000 -0.35000000 0.95000000 0.000786
-0.45000000 -0.55000000 0.35000000 0.000786
-0.50000000 -0.05000000 0.75000000 0.000786
-0.55000000 0.15000000 0.80000000 0.000786
-0.60000000 -1.00000000 0.95000000 0.000786
-0.60000000 0.85000000 0.95000000 0.000786
-0.75000000 0.65000000 -0.95000000 0.000786
-0.80000000 -0.40000000 0.40000000 0.000786
-0.90000000 -0.30000000 -0.90000000 0.000786
-0.90000000 -0.65000000 -0.90000000 0.000786
-0.90000000 -0.75000000 -0.90000000 0.000786
-0.90000000 -0.95000000 -0.80000000 0.000786
-0.95000000 0.15000000 0.40000000 0.000786
0.00000000 0.35000000 -0.75000000 0.000786
0.05000000 0.35000000 -0.75000000 0.000786
0.20000000 0.15000000 0.40000000 0.000786
0.25000000 0.70000000 0.40000000 0.000786
0.30000000 -0.60000000 -0.75000000 0.000786
0.45000000 -0.50000000 -0.75000000 0.000786
0.50000000 0.30000000 -0.75000000 0.000786
0.55000000 0.35000000 -0.75000000 0.000786
0.90000000 0.95000000 -0.80000000 0.000786
-0.05000000 -0.80000000 -0.75000000 0.000787
-0.15000000 -0.15000000 0.35000000 0.000787
-0.30000000 -0.40000000 0.80000000 0.000787
-0.45000000 0.00000000 -1.00000000 0.000787
-0.50000000 0.60000000 1.00000000 0.000787
-0.55000000 -0.05000000 1.00000000 0.000787
-0.55000000 -0.65000000 0.90000000 0.000787
-0.70000000 0.70000000 -0.90000000 0.000787
-0.75000000 -0.85000000 -0.95000000 0.000787
-0.80000000 -0.85000000 -0.80000000 0.000787
-0.80000000 0.15000000 -0.90000000 0.000787
-0.80000000 0.45000000 0.40000000 0.000787
-0.85000000 -0.95000000 -0.85000000 0.000787
-0.85000000 0.65000000 -0.80000000 0.000787
-0.90000000 -0.75000000 -0.85000000 0.000787
-0.90000000 0.35000000 -0.85000000 0.000787
-1.00000000 -0.30000000 0.40000000 0.000787
0.05000000 0.00000000 -0.75000000 0.000787
0.05000000 0.45000000 -0.75000000 0.000787
0.20000000 -0.05000000 -0.75000000 0.000787
0.40000000 -0.50000000 -0.75000000 0.000787
0.45000000 0.10000000 -0.75000000 0.000787
0.50000000 0.45000000 -0.75000000 0.000787
0.60000000 0.15000000 -0.75000000 0.000787
0.85000000 0.15000000 -0.80000000 0.000787
0.90000000 -0.75000000 -0.85000000 0.000787
0.90000000 0.50000000 -0.80000000 0.000787
0.95000000 -0.45000000 0.65000000 0.000787
1.00000000 0.10000000 -0.85000000 0.000787
-0.35000000 -0.70000000 0.60000000 0.000787
-0.35000000 0.35000000 -0.95000000 0.000787
-0.35000000 0.40000000 -0.95000000 0.000787
-0.40000000 -0.60000000 0.90000000 0.000787
-0.45000000 0.40000000 0.95000000 0.000787
-0.55000000 -0.35000000 0.85000000 0.000787
-0.65000000 0.60000000 1.00000000 0.000787
-0.75000000 -0.60000000 0.40000000 0.000787
-0.75000000 0.50000000 -0.90000000 0.000787
-0.75000000 0.75000000 -0.85000000 0.000787
-0.75000000 0.90000000 -0.75000000 0.000787
-0.80000000 -0.10000000 -0.90000000 0.000787
-0.80000000 -0.80000000 -0.90000000 0.000787
-0.85000000 -0.25000000 -0.90000000 0.000787
-0.85000000 0.60000000 -0.80000000 0.000787
-0.85000000 0.75000000 -0.80000000 0.000787
-0.90000000 0.05000000 -0.85000000 0.000787
-0.95000000 -0.45000000 -0.80000000 0.000787
-0.95000000 -0.65000000 -0.80000000 0.000787
-0.95000000 0.95000000 -0.80000000 0.000787
-1.00000000 0.10000000 0.40000000 0.000787
0.10000000 -1.00000000 -0.75000000 0.000787
0.25000000 0.05000000 -0.75000000 0.000787
0.35000000 -0.15000000 -0.75000000 0.000787
0.40000000 -0.65000000 0.30000000 0.000787
0.40000000 0.20000000 -0.75000000 0.000787
0.45000000 -0.40000000 -0.75000000 0.000787
0.45000000 -0.60000000 -0.75000000 0.000787
0.70000000 -0.50000000 -0.80000000 0.000787
0.80000000 -0.15000000 -0.80000000 0.000787
-0.15000000 0.10000000 0.40000000 0.000788
-0.20000000 -0.85000000 -0.80000000 0.000788
-0.25000000 -0.35000000 -0.85000000 0.000788
-0.45000000 0.05000000 0.70000000 0.000788
-0.45000000 0.80000000 -1.00000000 0.000788
-0.60000000 -0.10000000 1.00000000 0.000788
-0.75000000 -0.20000000 -0.90000000 0.000788
-0.75000000 0.20000000 -0.95000000 0.000788
-0.85000000 -0.75000000 -0.85000000 0.000788
-0.90000000 -0.05000000 -0.95000000 0.000788
0.05000000 -0.50000000 -0.75000000 0.000788
0.05000000 0.95000000 0.55000000 0.000788
0.10000000 -0.95000000 -0.75000000 0.000788
0.25000000 -0.30000000 -0.75000000 0.000788
0.25000000 0.30000000 -0.75000000 0.000788
0.30000000 0.25000000 -0.75000000 0.000788
0.40000000 0.30000000 -0.75000000 0.000788
0.45000000 -0.45000000 -0.75000000 0.000788
0.50000000 -0.30000000 -0.75000000 0.000788
0.50000000 0.30000000 0.30000000 0.000788
0.70000000 -0.80000000 -0.80000000 0.000788
0.75000000 0.65000000 -0.75000000 0.000788
0.85000000 -0.10000000 0.55000000 0.000788
1.00000000 -0.85000000 0.50000000 0.000788
1.00000000 0.50000000 -0.85000000 0.000788
1.00000000 0.65000000 -0.85000000 0.000788
-0.15000000 -0.20000000 0.35000000 0.000789
-0.35000000 -0.70000000 0.35000000 0.000789
-0.35000000 0.05000000 0.85000000 0.000789
-0.50000000 -0.40000000 0.75000000 0.000789
-0.50000000 -0.50000000 0.75000000 0.000789
-0.55000000 -0.85000000 0.90000000 0.000789
-0.60000000 0.65000000 0.90000000 0.000789
-0.70000000 -0.55000000 -0.90000000 0.000789
-0.70000000 0.15000000 -0.90000000 0.000789
-0.70000000 1.00000000 -0.95000000 0.000789
-0.85000000 0.80000000 -0.80000000 0.000789
-0.95000000 -0.05000000 0.40000000 0.000789
-0.95000000 0.15000000 -0.85000000 0.000789
-1.00000000 -0.05000000 -0.85000000 0.000789
0.00000000 -0.65000000 -0.75000000 0.000789
0.15000000 0.60000000 -0.70000000 0.000789
0.30000000 -0.95000000 -0.75000000 0.000789
0.30000000 0.00000000 -0.75000000 0.000789
0.45000000 -0.35000000 -0.75000000 0.000789
0.45000000 -0.75000000 0.30000000 0.000789
0.70000000 0.90000000 -0.75000000 0.000789
0.75000000 -0.75000000 -0.80000000 0.000789
0.75000000 0.60000000 -0.75000000 0.000789
0.80000000 -0.55000000 -0.80000000 0.000789
0.85000000 0.55000000 -0.80000000 0.000789
0.95000000 -0.40000000 0.65000000 0.000789
-0.20000000 -0.50000000 0.70000000 0.000789
-0.30000000 -0.30000000 0.80000000 0.000789
-0.30000000 -1.00000000 -0.85000000 0.000789
-0.35000000 -0.05000000 -0.95000000 0.000789
-0.40000000 -0.60000000 -0.95000000 0.000789
-0.45000000 -0.55000000 0.70000000 0.000789
-0.45000000 0.45000000 0.95000000 0.000789
-0.45000000 0.85000000 -1.00000000 0.000789
-0.60000000 0.30000000 0.95000000 0.000789
-0.70000000 -0.80000000 -0.85000000 0.000789
-0.75000000 0.70000000 -0.90000000 0.000789
-0.80000000 -0.80000000 -0.85000000 0.000789
-0.80000000 0.60000000 -0.85000000 0.000789
-0.90000000 -0.15000000 0.40000000 0.000789
-0.90000000 -0.65000000 -0.80000000 0.000789
-0.95000000 0.55000000 -0.80000000 0.000789
-1.00000000 -1.00000000 -0.80000000 0.000789
0.05000000 -0.55000000 -0.75000000 0.000789
0.10000000 0.05000000 -0.75000000 0.000789
0.15000000 0.20000000 -0.75000000 0.000789
0.20000000 0.60000000 -0.70000000 0.000789
0.25000000 0.85000000 -0.70000000 0.000789
0.30000000 -0.40000000 -0.75000000 0.000789
0.50000000 -0.70000000 0.30000000 0.000789
0.65000000 -0.50000000 -0.80000000 0.000789
0.75000000 0.35000000 0.45000000 0.000789
0.85000000 0.40000000 -0.80000000 0.000789
-0.15000000 -0.60000000 0.35000000 0.000790
-0.20000000 1.00000000 0.75000000 0.000790
-0.25000000 -0.85000000 0.50000000 0.000790
-0.30000000 -0.15000000 -0.90000000 0.000790
-0.30000000 -0.45000000 0.80000000 0.000790
-0.30000000 -0.85000000 0.80000000 0.000790
-0.45000000 -0.25000000 0.35000000 0.000790
-0.50000000 0.20000000 0.75000000 0.000790
-0.55000000 -0.05000000 0.85000000 0.000790
-0.70000000 0.85000000 -0.90000000 0.000790
-0.85000000 -0.20000000 -0.95000000 0.000790
-0.90000000 -1.00000000 -0.80000000 0.000790
-0.95000000 0.35000000 -0.80000000 0.000790
0.00000000 -0.95000000 -0.75000000 0.000790
0.05000000 -0.85000000 -0.75000000 0.000790
0.20000000 -0.65000000 -0.75000000 0.000790
0.25000000 -0.10000000 -0.75000000 0.000790
0.30000000 0.30000000 0.35000000 0.000790
0.35000000 -0.40000000 -0.75000000 0.000790
0.40000000 -0.20000000 0.30000000 0.000790
0.45000000 -0.70000000 -0.75000000 0.000790
0.50000000 0.10000000 -0.75000000 0.000790
0.75000000 0.90000000 -0.75000000 0.000790
0.80000000 -0.25000000 -0.80000000 0.000790
0.80000000 0.45000000 0.50000000 0.000790
0.85000000 0.05000000 -0.80000000 0.000790
0.85000000 0.65000000 -0.80000000 0.000790
0.90000000 -0.45000000 0.60000000 0.000790
1.00000000 -0.45000000 0.45000000 0.000790
1.00000000 -0.75000000 0.45000000 0.000790
1.00000000 0.30000000 -0.85000000 0.000790
-0.15000000 -0.35000000 -0.80000000 0.000791
-0.15000000 0.20000000 -0.80000000 0.000791
-0.15000000 1.00000000 0.70000000 0.000791
-0.20000000 -0.70000000 -0.80000000 0.000791
-0.20000000 -1.00000000 -0.80000000 0.000791
-0.25000000 -0.85000000 0.35000000 0.000791
-0.30000000 -0.80000000 0.55000000 0.000791
-0.35000000 -0.50000000 0.85000000 0.000791
-0.50000000 0.10000000 0.75000000 0.000791
-0.55000000 -0.90000000 0.90000000 0.000791
-0.55000000 0.00000000 0.35000000 0.000791
-0.55000000 0.30000000 0.80000000 0.000791
-0.60000000 0.00000000 1.00000000 0.000791
-0.60000000 0.75000000 0.90000000 0.000791
-0.65000000 0.90000000 0.40000000 0.000791
-0.75000000 -0.40000000 -0.90000000 0.000791
-0.75000000 -0.55000000 -0.95000000 0.000791
-0.80000000 1.00000000 -0.85000000 0.000791
-0.95000000 0.05000000 -0.85000000 0.000791
-0.95000000 0.45000000 -0.80000000 0.000791
0.00000000 -0.25000000 -0.75000000 0.000791
0.00000000 -0.55000000 -0.75000000 0.000791
0.20000000 -0.35000000 -0.75000000 0.000791
0.30000000 -0.45000000 -0.75000000 0.000791
0.30000000 0.85000000 -0.75000000 0.000791
0.40000000 -0.25000000 0.30000000 0.000791
0.80000000 1.00000000 -0.75000000 0.000791
0.85000000 -0.30000000 -0.80000000 0.000791
0.90000000 0.60000000 -0.80000000 0.000791
1.00000000 -0.90000000 0.45000000 0.000791
-0.10000000 0.45000000 0.65000000 0.000791
-0.15000000 -0.50000000 -0.80000000 0.000791
-0.25000000 -0.55000000 0.75000000 0.000791
-0.25000000 -0.80000000 0.75000000 0.000791
-0.30000000 -0.35000000 0.80000000 0.000791
-0.35000000 0.95000000 -0.95000000 0.000791
-0.35000000 1.00000000 0.85000000 0.000791
-0.45000000 -0.20000000 0.35000000 0.000791
-0.50000000 0.05000000 0.75000000 0.000791
-0.50000000 0.50000000 0.75000000 0.000791
-0.55000000 -0.75000000 0.90000000 0.000791
-0.55000000 -0.80000000 1.00000000 0.000791
-0.70000000 -0.65000000 -0.85000000 0.000791
-0.70000000 -0.80000000 -0.90000000 0.000791
-0.75000000 1.00000000 -1.00000000 0.000791
-0.85000000 -0.60000000 -0.85000000 0.000791
-0.90000000 -0.30000000 0.40000000 0.000791
-0.90000000 0.20000000 0.40000000 0.000791
-0.95000000 -0.05000000 -0.95000000 0.000791
-0.95000000 -0.80000000 -0.80000000 0.000791
-0.95000000 0.05000000 -0.90000000 0.000791
0.05000000 -0.90000000 -0.75000000 0.000791
0.10000000 0.10000000 -0.75000000 0.000791
0.30000000 0.25000000 0.35000000 0.000791
0.30000000 0.35000000 0.35000000 0.000791
0.75000000 -0.50000000 -0.80000000 0.000791
0.95000000 -0.20000000 0.65000000 0.000791
-0.15000000 0.35000000 0.35000000 0.000792
-0.15000000 0.60000000 0.40000000 0.000792
-0.15000000 0.95000000 0.40000000 0.000792
-0.35000000 -0.70000000 -0.90000000 0.000792
-0.40000000 0.40000000 0.35000000 0.000792
-0.45000000 -0.40000000 0.35000000 0.000792
-0.50000000 -0.25000000 0.75000000 0.000792
-0.50000000 -0.85000000 0.75000000 0.000792
-0.50000000 0.25000000 0.75000000 0.000792
-0.55000000 -0.15000000 0.90000000 0.000792
-0.55000000 -0.70000000 0.90000000 0.000792
-0.55000000 0.85000000 0.85000000 0.000792
-0.60000000 -0.20000000 0.95000000 0.000792
-0.60000000 -0.35000000 0.95000000 0.000792
-0.60000000 -0.90000000 0.95000000 0.000792
-0.80000000 0.25000000 -0.85000000 0.000792
-0.85000000 -0.60000000 -0.90000000 0.000792
-0.85000000 0.95000000 -0.75000000 0.000792
-0.90000000 -0.50000000 -0.90000000 0.000792
0.00000000 -0.20000000 0.55000000 0.000792
0.10000000 -0.20000000 -0.75000000 0.000792
0.10000000 0.15000000 -0.75000000 0.000792
0.10000000 0.20000000 -0.75000000 0.000792
0.15000000 0.75000000 -0.75000000 0.000792
0.20000000 -0.05000000 0.40000000 0.000792
0.40000000 -0.35000000 -0.75000000 0.000792
0.50000000 -0.75000000 -0.75000000 0.000792
0.75000000 0.60000000 0.45000000 0.000792
0.80000000 0.05000000 0.50000000 0.000792
0.85000000 -0.05000000 -0.80000000 0.000792
1.00000000 -0.95000000 0.70000000 0.000792
-0.05000000 0.50000000 -0.75000000 0.000793
-0.20000000 0.85000000 0.75000000 0.000793
-0.35000000 0.45000000 0.85000000 0.000793
-0.40000000 -0.25000000 0.90000000 0.000793
-0.45000000 -0.80000000 0.70000000 0.000793
-0.45000000 0.75000000 0.95000000 0.000793
-0.80000000 0.85000000 -0.85000000 0.000793
-0.85000000 -0.05000000 -0.90000000 0.000793
-0.85000000 0.00000000 -0.90000000 0.000793
-0.90000000 0.55000000 -0.80000000 0.000793
-0.95000000 -0.35000000 -0.80000000 0.000793
-0.95000000 -0.55000000 -0.80000000 0.000793
0.00000000 -0.40000000 0.55000000 0.000793
0.20000000 -0.30000000 -0.75000000 0.000793
0.20000000 -0.60000000 -0.75000000 0.000793
0.35000000 0.40000000 -0.75000000 0.000793
0.35000000 0.50000000 -0.70000000 0.000793
0.40000000 1.00000000 -0.70000000 0.000793
0.70000000 -0.45000000 -0.80000000 0.000793
0.75000000 0.75000000 0.45000000 0.000793
0.80000000 0.10000000 -0.80000000 0.000793
0.90000000 0.40000000 -0.80000000 0.000793
0.95000000 -0.55000000 -0.85000000 0.000793
0.95000000 -0.65000000 0.65000000 0.000793
1.00000000 -0.20000000 -0.85000000 0.000793
-0.10000000 0.90000000 -0.75000000 0.000793
-0.15000000 -0.10000000 0.40000000 0.000793
-0.15000000 0.15000000 -0.80000000 0.000793
-0.20000000 -0.95000000 0.70000000 0.000793
-0.30000000 -0.70000000 0.55000000 0.000793
-0.30000000 0.65000000 0.85000000 0.000793
-0.35000000 -0.75000000 0.60000000 0.000793
-0.35000000 0.50000000 0.35000000 0.000793
-0.40000000 -0.70000000 -0.95000000 0.000793
-0.45000000 -0.65000000 0.70000000 0.000793
-0.45000000 0.70000000 0.95000000 0.000793
-0.45000000 0.75000000 -1.00000000 0.000793
-0.45000000 1.00000000 0.95000000 0.000793
-0.55000000 -0.30000000 0.90000000 0.000793
-0.55000000 -0.90000000 0.80000000 0.000793
-0.60000000 -0.20000000 1.00000000 0.000793
-0.60000000 1.00000000 0.95000000 0.000793
-0.70000000 -0.65000000 -0.90000000 0.000793
-0.70000000 -0.90000000 -0.85000000 0.000793
-0.75000000 -0.20000000 -0.85000000 0.000793
-0.75000000 -0.65000000 -0.95000000 0.000793
-0.75000000 -0.90000000 0.40000000 0.000793
-0.80000000 0.55000000 -0.85000000 0.000793
0.05000000 -0.20000000 0.50000000 0.000793
0.10000000 0.40000000 -0.75000000 0.000793
0.30000000 0.65000000 -0.70000000 0.000793
0.60000000 -0.75000000 0.35000000 0.000793
0.85000000 0.95000000 -0.75000000 0.000793
0.90000000 0.15000000 -0.80000000 0.000793
0.95000000 -0.95000000 -0.85000000 0.000793
1.00000000 -1.00000000 0.50000000 0.000793
-0.20000000 0.75000000 0.75000000 0.000794
-0.25000000 -0.70000000 0.75000000 0.000794
-0.35000000 -1.00000000 -0.90000000 0.000794
-0.35000000 -1.00000000 0.60000000 0.000794
-0.45000000 -0.30000000 0.35000000 0.000794
-0.45000000 0.20000000 0.70000000 0.000794
-0.55000000 -0.15000000 0.85000000 0.000794
-0.55000000 0.15000000 1.00000000 0.000794
-0.60000000 -0.40000000 0.95000000 0.000794
-0.70000000 -1.00000000 -0.85000000 0.000794
-0.75000000 0.60000000 0.40000000 0.000794
-0.75000000 0.95000000 -0.85000000 0.000794
-0.80000000 -0.25000000 -1.00000000 0.000794
-0.80000000 0.40000000 -0.80000000 0.000794
-0.85000000 0.60000000 -0.90000000 0.000794
-0.85000000 0.90000000 -0.85000000 0.000794
-0.90000000 0.15000000 0.40000000 0.000794
-0.90000000 1.00000000 -0.75000000 0.000794
0.05000000 -0.65000000 -0.75000000 0.000794
0.10000000 0.55000000 -0.70000000 0.000794
0.45000000 -0.65000000 -0.75000000 0.000794
0.50000000 -0.50000000 -0.75000000 0.000794
0.85000000 -0.25000000 -0.80000000 0.000794
0.90000000 -0.25000000 -0.80000000 0.000794
0.90000000 0.30000000 -0.80000000 0.000794
-0.15000000 0.70000000 0.70000000 0.000795
-0.20000000 -0.75000000 0.35000000 0.000795
-0.20000000 -0.80000000 -0.80000000 0.000795
-0.30000000 -0.60000000 0.80000000 0.000795
-0.30000000 0.60000000 0.35000000 0.000795
-0.35000000 -0.80000000 -0.90000000 0.000795
-0.35000000 -0.95000000 0.60000000 0.000795
-0.45000000 -0.25000000 -1.00000000 0.000795
-0.50000000 1.00000000 1.00000000 0.000795
-0.55000000 -0.45000000 0.90000000 0.000795
-0.55000000 0.25000000 0.80000000 0.000795
-0.60000000 0.35000000 0.90000000 0.000795
-0.60000000 0.95000000 0.95000000 0.000795
-0.65000000 -1.00000000 0.40000000 0.000795
-0.75000000 -0.80000000 -0.85000000 0.000795
-0.90000000 0.05000000 -0.95000000 0.000795
0.15000000 0.30000000 -0.75000000 0.000795
0.15000000 0.35000000 0.45000000 0.000795
0.20000000 0.00000000 -0.75000000 0.000795
0.40000000 0.45000000 -0.75000000 0.000795
0.55000000 0.00000000 -0.75000000 0.000795
0.65000000 -0.85000000 -0.75000000 0.000795
0.70000000 0.70000000 -0.75000000 0.000795
0.75000000 -1.00000000 -0.80000000 0.000795
0.80000000 -0.10000000 -0.80000000 0.000795
0.90000000 -0.15000000 0.60000000 0.000795
0.95000000 -0.30000000 0.65000000 0.000795
0.95000000 0.90000000 -0.80000000 0.000795
1.00000000 -0.15000000 -0.85000000 0.000795
1.00000000 -0.40000000 -0.85000000 0.000795
1.00000000 -0.85000000 0.70000000 0.000795
-0.25000000 -0.45000000 -0.85000000 0.000796
-0.25000000 0.10000000 -0.85000000 0.000796
-0.30000000 -0.05000000 -0.90000000 0.000796
-0.30000000 0.20000000 -0.90000000 0.000796
-0.40000000 -0.60000000 0.35000000 0.000796
-0.40000000 -0.90000000 -0.95000000 0.000796
-0.45000000 -0.60000000 -1.00000000 0.000796
-0.45000000 0.15000000 0.35000000 0.000796
-0.50000000 0.50000000 1.00000000 0.000796
-0.55000000 0.40000000 0.80000000 0.000796
-0.65000000 -0.85000000 1.00000000 0.000796
-0.65000000 -0.95000000 0.40000000 0.000796
-0.80000000 0.75000000 -0.80000000 0.000796
-0.85000000 -0.35000000 -0.85000000 0.000796
-0.85000000 0.25000000 0.40000000 0.000796
-0.85000000 0.50000000 -0.85000000 0.000796
-0.90000000 -0.10000000 -0.90000000 0.000796
-0.90000000 -0.70000000 -0.80000000 0.000796
0.00000000 0.30000000 -0.75000000 0.000796
0.05000000 -0.35000000 0.50000000 0.000796
0.05000000 0.80000000 0.55000000 0.000796
0.15000000 0.25000000 -0.75000000 0.000796
0.35000000 0.05000000 -0.75000000 0.000796
0.35000000 0.80000000 0.35000000 0.000796
0.50000000 0.35000000 -0.75000000 0.000796
1.00000000 -0.65000000 0.70000000 0.000796
-0.15000000 1.00000000 0.40000000 0.000796
-0.25000000 -0.20000000 0.75000000 0.000796
-0.25000000 0.65000000 0.35000000 0.000796
-0.40000000 0.30000000 0.90000000 0.000796
-0.40000000 0.50000000 0.35000000 0.000796
-0.40000000 0.95000000 0.90000000 0.000796
-0.45000000 -0.85000000 0.70000000 0.000796
-0.60000000 0.85000000 0.90000000 0.000796
-0.70000000 -0.60000000 -0.85000000 0.000796
-0.75000000 -0.55000000 -0.85000000 0.000796
-0.75000000 0.70000000 0.40000000 0.000796
-0.80000000 -0.80000000 -0.80000000 0.000796
-0.90000000 0.95000000 -0.75000000 0.000796
-0.95000000 -0.35000000 0.40000000 0.000796
-0.95000000 0.60000000 -0.80000000 0.000796
-1.00000000 -0.80000000 -0.80000000 0.000796
0.00000000 -0.35000000 -0.75000000 0.000796
0.00000000 -0.90000000 -0.75000000 0.000796
0.00000000 0.75000000 -0.75000000 0.000796
0.20000000 0.35000000 -0.75000000 0.000796
0.30000000 -0.30000000 -0.75000000 0.000796
0.45000000 -0.95000000 -0.75000000 0.000796
0.85000000 0.20000000 -0.80000000 0.000796
0.90000000 0.00000000 -0.80000000 0.000796
1.00000000 0.15000000 -0.85000000 0.000796
-0.05000000 0.20000000 -0.75000000 0.000797
-0.25000000 -0.90000000 0.50000000 0.000797
-0.45000000 -0.45000000 0.70000000 0.000797
-0.55000000 -0.20000000 0.90000000 0.000797
-0.60000000 0.10000000 0.90000000 0.000797
-0.65000000 -1.00000000 1.00000000 0.000797
-0.70000000 0.75000000 -0.90000000 0.000797
-0.75000000 0.75000000 -0.95000000 0.000797
-0.80000000 -0.20000000 -0.85000000 0.000797
-0.80000000 -0.45000000 0.40000000 0.000797
-0.85000000 -0.75000000 -0.80000000 0.000797
-0.90000000 -0.70000000 -0.85000000 0.000797
-0.90000000 0.50000000 -0.80000000 0.000797
-0.95000000 0.10000000 -0.90000000 0.000797
0.25000000 0.90000000 -0.70000000 0.000797
0.40000000 -0.25000000 -0.75000000 0.000797
0.45000000 -0.05000000 -0.75000000 0.000797
0.65000000 0.30000000 -0.75000000 0.000797
0.70000000 0.55000000 -0.75000000 0.000797
0.75000000 -0.90000000 -0.80000000 0.000797
0.75000000 0.40000000 0.45000000 0.000797
0.95000000 -0.80000000 -0.85000000 0.000797
0.95000000 -0.80000000 0.65000000 0.000797
-0.25000000 -0.65000000 0.75000000 0.000798
-0.40000000 0.55000000 0.35000000 0.000798
-0.75000000 -0.85000000 -0.85000000 0.000798
-0.80000000 -0.30000000 -0.85000000 0.000798
-0.80000000 -0.75000000 -0.80000000 0.000798
0.05000000 1.00000000 0.55000000 0.000798
0.15000000 0.15000000 -0.75000000 0.000798
0.35000000 0.90000000 0.35000000 0.000798
0.75000000 0.70000000 -0.75000000 0.000798
0.85000000 0.25000000 -0.80000000 0.000798
0.90000000 0.10000000 -0.80000000 0.000798
1.00000000 -0.45000000 -0.85000000 0.000798
-0.05000000 0.75000000 -0.75000000 0.000798
-0.15000000 -0.55000000 0.40000000 0.000798
-0.25000000 -0.75000000 0.75000000 0.000798
-0.40000000 -0.65000000 0.65000000 0.000798
-0.45000000 -0.40000000 -1.00000000 0.000798
-0.70000000 -0.70000000 -0.90000000 0.000798
-0.70000000 0.10000000 -0.90000000 0.000798
-0.80000000 -0.15000000 -0.90000000 0.000798
-0.80000000 -0.70000000 0.40000000 0.000798
-0.80000000 -0.90000000 -0.85000000 0.000798
-0.85000000 -0.45000000 -0.85000000 0.000798
-0.85000000 0.70000000 0.40000000 0.000798
-0.90000000 0.40000000 -0.85000000 0.000798
-0.95000000 -0.90000000 -0.80000000 0.000798
-0.95000000 0.20000000 0.40000000 0.000798
0.00000000 -0.05000000 0.55000000 0.000798
0.15000000 -0.60000000 -0.75000000 0.000798
0.35000000 -0.95000000 -0.75000000 0.000798
0.40000000 -0.05000000 0.30000000 0.000798
0.45000000 -1.00000000 -0.75000000 0.000798
0.60000000 -0.85000000 -0.75000000 0.000798
0.75000000 0.40000000 -0.75000000 0.000798
0.90000000 0.55000000 -0.80000000 0.000798
-0.05000000 -0.30000000 -0.75000000 0.000799
-0.25000000 -0.55000000 -0.85000000 0.000799
-0.40000000 -0.45000000 -0.95000000 0.000799
-0.40000000 0.15000000 0.90000000 0.000799
-0.45000000 0.35000000 0.95000000 0.000799
-0.50000000 -0.45000000 0.85000000 0.000799
-0.50000000 -0.55000000 0.80000000 0.000799
-0.60000000 0.90000000 0.95000000 0.000799
-0.70000000 -0.90000000 0.40000000 0.000799
-0.90000000 0.05000000 -0.90000000 0.000799
0.20000000 -0.20000000 -0.75000000 0.000799
0.25000000 0.35000000 -0.75000000 0.000799
0.30000000 0.55000000 -0.70000000 0.000799
0.40000000 -0.15000000 -0.75000000 0.000799
0.65000000 -0.80000000 -0.75000000 0.000799
0.75000000 -0.70000000 -0.80000000 0.000799
0.80000000 -0.40000000 -0.80000000 0.000799
1.00000000 -0.60000000 0.45000000 0.000799
-0.15000000 0.10000000 0.35000000 0.000800
-0.40000000 -0.75000000 -0.95000000 0.000800
-0.50000000 -1.00000000 0.75000000 0.000800
-0.55000000 1.00000000 0.85000000 0.000800
-0.60000000 -0.15000000 1.00000000 0.000800
-0.60000000 0.45000000 0.95000000 0.000800
-0.70000000 -0.50000000 -0.90000000 0.000800
-0.70000000 0.65000000 -0.90000000 0.000800
-0.75000000 -0.55000000 -0.80000000 0.000800
-0.90000000 -0.85000000 -0.80000000 0.000800
0.00000000 -0.15000000 -0.75000000 0.000800
0.40000000 -0.10000000 -0.75000000 0.000800
0.40000000 -0.80000000 -0.75000000 0.000800
0.45000000 -0.55000000 -0.75000000 0.000800
0.45000000 -0.75000000 -0.75000000 0.000800
0.75000000 0.65000000 0.45000000 0.000800
0.85000000 0.60000000 -0.80000000 0.000800
0.90000000 -0.40000000 0.60000000 0.000800
0.95000000 -0.50000000 -0.85000000 0.000800
1.00000000 -0.30000000 -0.85000000 0.000800
-0.30000000 0.15000000 -0.90000000 0.000800
-0.35000000 -0.80000000 0.35000000 0.000800
-0.40000000 0.35000000 0.90000000 0.000800
-0.40000000 0.65000000 0.90000000 0.000800
-0.40000000 0.80000000 0.90000000 0.000800
-0.45000000 -0.70000000 -1.00000000 0.000800
-0.45000000 0.30000000 0.95000000 0.000800
-0.55000000 1.00000000 0.90000000 0.000800
-0.60000000 -0.95000000 0.95000000 0.000800
-0.80000000 -0.35000000 -0.85000000 0.000800
-0.85000000 -0.30000000 -0.85000000 0.000800
-0.85000000 0.80000000 -0.85000000 0.000800
-1.00000000 0.00000000 0.40000000 0.000800
0.15000000 0.00000000 -0.75000000 0.000800
0.40000000 0.20000000 0.30000000 0.000800
0.50000000 0.55000000 -0.75000000 0.000800
0.55000000 0.55000000 -0.75000000 0.000800
0.75000000 -0.65000000 -0.80000000 0.000800
0.75000000 -0.80000000 -0.80000000 0.000800
0.80000000 0.20000000 -0.75000000 0.000800
0.80000000 0.70000000 -0.75000000 0.000800
0.85000000 -0.35000000 -0.80000000 0.000800
0.95000000 -0.60000000 0.65000000 0.000800
0.95000000 -0.85000000 -0.85000000 0.000800
1.00000000 -0.55000000 -0.85000000 0.000800
1.00000000 0.90000000 -0.85000000 0.000800
-0.05000000 -0.25000000 -0.75000000 0.000801
-0.20000000 -0.90000000 0.45000000 0.000801
-0.20000000 0.70000000 0.75000000 0.000801
-0.20000000 0.90000000 -0.80000000 0.000801
-0.30000000 -0.10000000 0.80000000 0.000801
-0.30000000 -0.85000000 0.35000000 0.000801
-0.30000000 -0.95000000 -0.85000000 0.000801
-0.30000000 0.05000000 -0.90000000 0.000801
-0.45000000 0.65000000 -1.00000000 0.000801
-0.65000000 0.95000000 0.40000000 0.000801
-0.80000000 0.20000000 -0.85000000 0.000801
-0.85000000 0.05000000 -0.90000000 0.000801
-0.85000000 0.10000000 -0.85000000 0.000801
-0.90000000 -0.15000000 -0.85000000 0.000801
-0.90000000 -0.35000000 -0.80000000 0.000801
-0.90000000 -0.80000000 -0.90000000 0.000801
-0.95000000 0.05000000 0.40000000 0.000801
0.00000000 0.00000000 0.55000000 0.000801
0.25000000 0.75000000 -0.70000000 0.000801
0.30000000 0.80000000 -0.70000000 0.000801
0.35000000 0.95000000 -0.70000000 0.000801
0.40000000 -0.05000000 -0.75000000 0.000801
0.40000000 -0.20000000 -0.75000000 0.000801
0.40000000 -0.55000000 -0.75000000 0.000801
0.50000000 0.05000000 -0.75000000 0.000801
0.55000000 -0.50000000 -0.75000000 0.000801
0.60000000 0.90000000 -0.70000000 0.000801
0.65000000 0.10000000 -0.75000000 0.000801
1.00000000 0.25000000 -0.85000000 0.000801
-0.20000000 -0.40000000 -0.80000000 0.000802
-0.20000000 0.90000000 0.75000000 0.000802
-0.30000000 -0.95000000 0.55000000 0.000802
-0.40000000 -0.70000000 0.65000000 0.000802
-0.50000000 -0.75000000 0.95000000 0.000802
-0.50000000 0.45000000 0.75000000 0.000802
-0.55000000 -0.95000000 0.90000000 0.000802
-0.60000000 -0.05000000 1.00000000 0.000802
-0.70000000 -0.90000000 -0.90000000 0.000802
-0.75000000 0.85000000 -0.85000000 0.000802
-0.80000000 0.35000000 -0.85000000 0.000802
-0.95000000 -0.20000000 0.40000000 0.000802
0.00000000 0.10000000 -0.75000000 0.000802
0.05000000 -0.65000000 0.50000000 0.000802
0.10000000 -0.30000000 -0.75000000 0.000802
0.10000000 0.80000000 0.50000000 0.000802
0.20000000 0.75000000 -0.70000000 0.000802
0.20000000 0.85000000 -0.70000000 0.000802
0.25000000 0.65000000 -0.70000000 0.000802
0.30000000 0.40000000 0.35000000 0.000802
0.40000000 -0.90000000 -0.75000000 0.000802
0.65000000 -1.00000000 -0.80000000 0.000802
0.70000000 -0.60000000 -0.80000000 0.000802
0.75000000 -0.60000000 -0.80000000 0.000802
0.90000000 0.65000000 -0.80000000 0.000802
1.00000000 -0.50000000 -0.85000000 0.000802
-0.10000000 0.85000000 -0.75000000 0.000802
-0.20000000 0.80000000 0.75000000 0.000802
-0.30000000 -0.80000000 -0.85000000 0.000802
-0.40000000 -0.05000000 0.65000000 0.000802
-0.45000000 -0.65000000 -1.00000000 0.000802
-0.45000000 0.55000000 0.95000000 0.000802
-0.55000000 -0.05000000 0.35000000 0.000802
-0.55000000 -0.40000000 0.90000000 0.000802
-0.55000000 -0.70000000 0.85000000 0.000802
-0.65000000 -0.90000000 1.00000000 0.000802
-0.70000000 -1.00000000 -0.90000000 0.000802
-0.75000000 -0.40000000 -0.95000000 0.000802
-0.80000000 -0.65000000 -0.85000000 0.000802
-0.80000000 0.55000000 -0.80000000 0.000802
-0.95000000 0.30000000 -0.80000000 0.000802
0.05000000 -0.10000000 -0.75000000 0.000802
0.10000000 0.65000000 0.50000000 0.000802
0.15000000 -0.45000000 -0.75000000 0.000802
0.25000000 -0.35000000 -0.75000000 0.000802
0.60000000 0.30000000 -0.75000000 0.000802
0.65000000 0.20000000 -0.75000000 0.000802
0.80000000 -0.90000000 -0.80000000 0.000802
0.95000000 -1.00000000 -0.85000000 0.000802
-0.05000000 -0.75000000 -0.75000000 0.000803
-0.15000000 0.70000000 0.40000000 0.000803
-0.40000000 -0.60000000 0.65000000 0.000803
-0.45000000 -0.20000000 0.95000000 0.000803
-0.75000000 -0.60000000 -0.85000000 0.000803
-0.75000000 0.40000000 -1.00000000 0.000803
-0.80000000 0.75000000 0.40000000 0.000803
-0.85000000 -0.35000000 0.40000000 0.000803
-0.85000000 -0.70000000 -0.80000000 0.000803
-0.85000000 0.45000000 0.40000000 0.000803
-0.90000000 -0.65000000 -0.85000000 0.000803
-0.95000000 -0.75000000 -0.80000000 0.000803
-0.95000000 0.10000000 0.40000000 0.000803
0.05000000 -0.70000000 0.50000000 0.000803
0.15000000 0.55000000 -0.70000000 0.000803
0.20000000 0.10000000 -0.75000000 0.000803
0.25000000 0.00000000 -0.75000000 0.000803
0.30000000 -0.55000000 -0.75000000 0.000803
0.40000000 -0.40000000 -0.75000000 0.000803
0.40000000 -1.00000000 -0.75000000 0.000803
0.60000000 -0.45000000 -0.75000000 0.000803
0.70000000 0.00000000 -0.75000000 0.000803
0.80000000 -0.95000000 -0.80000000 0.000803
1.00000000 -0.40000000 0.70000000 0.000803
1.00000000 0.45000000 -0.85000000 0.000803
-0.15000000 0.80000000 0.70000000 0.000804
-0.45000000 -0.25000000 0.70000000 0.000804
-0.70000000 0.70000000 -0.85000000 0.000804
-0.70000000 0.90000000 -0.90000000 0.000804
-0.70000000 0.95000000 -0.95000000 0.000804
-0.75000000 0.30000000 -0.85000000 0.000804
-0.75000000 0.90000000 -0.80000000 0.000804
-0.80000000 -0.20000000 -0.90000000 0.000804
-0.90000000 0.30000000 -0.80000000 0.000804
0.10000000 -0.35000000 -0.75000000 0.000804
0.10000000 -0.45000000 -0.75000000 0.000804
0.15000000 -0.70000000 -0.75000000 0.000804
0.45000000 0.50000000 -0.75000000 0.000804
0.50000000 -0.05000000 -0.75000000 0.000804
0.55000000 -0.20000000 -0.75000000 0.000804
0.60000000 -0.10000000 -0.75000000 0.000804
0.65000000 -0.60000000 -0.80000000 0.000804
0.75000000 0.45000000 0.45000000 0.000804
0.75000000 0.70000000 0.45000000 0.000804
1.00000000 -0.05000000 -0.85000000 0.000804
1.00000000 -1.00000000 0.70000000 0.000804
-0.10000000 0.75000000 0.65000000 0.000804
-0.20000000 -0.75000000 -0.80000000 0.000804
-0.25000000 0.15000000 -0.85000000 0.000804
-0.30000000 -0.80000000 0.35000000 0.000804
-0.40000000 -0.80000000 -0.95000000 0.000804
-0.45000000 -0.50000000 0.35000000 0.000804
-0.45000000 0.20000000 0.35000000 0.000804
-0.55000000 -0.30000000 0.85000000 0.000804
-0.55000000 -0.65000000 0.95000000 0.000804
-0.55000000 -1.00000000 0.85000000 0.000804
-0.55000000 0.10000000 1.00000000 0.000804
-0.60000000 -0.70000000 1.00000000 0.000804
-0.60000000 0.05000000 1.00000000 0.000804
-0.60000000 0.10000000 1.00000000 0.000804
-0.60000000 0.75000000 0.95000000 0.000804
-0.70000000 -0.50000000 -0.85000000 0.000804
-0.70000000 0.05000000 -0.90000000 0.000804
-0.75000000 -0.85000000 0.40000000 0.000804
-0.80000000 -0.60000000 -0.85000000 0.000804
-0.80000000 -0.85000000 -0.85000000 0.000804
-0.80000000 0.35000000 -0.80000000 0.000804
-0.80000000 0.45000000 -0.85000000 0.000804
-0.85000000 0.40000000 0.40000000 0.000804
-0.90000000 0.15000000 -0.90000000 0.000804
0.05000000 -0.35000000 -0.75000000 0.000804
0.05000000 -0.45000000 -0.75000000 0.000804
0.15000000 -0.05000000 -0.75000000 0.000804
0.15000000 -0.30000000 -0.75000000 0.000804
0.15000000 0.70000000 -0.70000000 0.000804
0.25000000 -0.15000000 -0.75000000 0.000804
0.35000000 -0.35000000 -0.75000000 0.000804
0.40000000 -0.45000000 -0.75000000 0.000804
0.45000000 0.35000000 0.30000000 0.000804
0.45000000 0.40000000 -0.75000000 0.000804
0.75000000 -0.45000000 -0.80000000 0.000804
0.75000000 0.85000000 -0.75000000 0.000804
0.80000000 0.65000000 -0.75000000 0.000804
0.95000000 -0.75000000 0.45000000 0.000804
1.00000000 -0.80000000 0.50000000 0.000804
1.00000000 0.40000000 -0.85000000 0.000804
-0.10000000 -0.95000000 -0.75000000 0.000805
-0.10000000 0.55000000 -0.75000000 0.000805
-0.25000000 -0.25000000 0.75000000 0.000805
-0.25000000 -0.50000000 -0.85000000 0.000805
-0.25000000 0.60000000 0.35000000 0.000805
-0.30000000 0.00000000 0.80000000 0.000805
-0.45000000 -0.35000000 0.35000000 0.000805
-0.45000000 -0.50000000 0.70000000 0.000805
-0.45000000 0.40000000 -1.00000000 0.000805
-0.70000000 0.35000000 -0.90000000 0.000805
-0.75000000 0.80000000 -0.85000000 0.000805
-0.85000000 0.55000000 -0.80000000 0.000805
-0.85000000 0.95000000 -0.80000000 0.000805
-0.90000000 -0.05000000 -0.90000000 0.000805
-0.90000000 -0.45000000 -0.80000000 0.000805
0.15000000 0.45000000 0.45000000 0.000805
0.20000000 -0.15000000 -0.75000000 0.000805
0.30000000 0.15000000 -0.75000000 0.000805
0.50000000 -0.55000000 -0.75000000 0.000805
0.55000000 -0.05000000 -0.75000000 0.000805
0.55000000 -0.60000000 -0.75000000 0.000805
0.55000000 0.30000000 -0.75000000 0.000805
0.75000000 -0.95000000 -0.80000000 0.000805
0.95000000 -0.70000000 0.65000000 0.000805
0.95000000 0.85000000 -0.80000000 0.000805
1.00000000 -0.75000000 -0.85000000 0.000805
-0.15000000 -0.30000000 0.40000000 0.000806
-0.25000000 -0.25000000 -0.85000000 0.000806
