//X Y Z Consensus 
0.60000000 0.60000000 0.50000000 0.002620
0.50000000 0.20000000 0.75000000 0.002620
-0.35000000 -0.95000000 -0.75000000 0.002620
-0.70000000 0.40000000 -0.90000000 0.002620
-0.05000000 0.85000000 0.50000000 0.002620
-0.35000000 0.65000000 0.65000000 0.002620
0.40000000 -0.55000000 0.70000000 0.002620
-0.35000000 -0.65000000 0.70000000 0.002621
-0.50000000 -1.00000000 0.35000000 0.002622
0.25000000 -0.90000000 -0.80000000 0.002622
0.90000000 -0.70000000 0.25000000 0.002622
0.25000000 -0.65000000 0.70000000 0.002623
0.90000000 -0.30000000 -0.70000000 0.002624
-0.45000000 -0.45000000 0.75000000 0.002624
0.00000000 0.65000000 0.70000000 0.002625
0.55000000 -0.05000000 0.75000000 0.002626
0.40000000 0.35000000 0.75000000 0.002627
0.00000000 -0.95000000 -0.80000000 0.002627
0.35000000 -0.45000000 0.75000000 0.002629
0.80000000 0.25000000 -0.80000000 0.002629
0.65000000 1.00000000 0.10000000 0.002629
0.65000000 0.55000000 0.50000000 0.002630
0.20000000 -0.85000000 0.55000000 0.002632
-0.70000000 -0.60000000 -0.85000000 0.002633
0.85000000 0.00000000 -0.80000000 0.002634
0.80000000 0.70000000 -0.45000000 0.002637
-0.80000000 0.85000000 0.25000000 0.002637
-0.55000000 -0.80000000 -0.80000000 0.002637
0.25000000 0.80000000 0.50000000 0.002638
0.05000000 -1.00000000 0.45000000 0.002639
-0.15000000 -1.00000000 0.45000000 0.002640
0.35000000 -0.80000000 -0.85000000 0.002641
-0.40000000 -0.70000000 0.65000000 0.002641
0.90000000 0.15000000 0.45000000 0.002641
0.75000000 -0.35000000 -0.85000000 0.002642
0.85000000 -0.25000000 0.50000000 0.002643
0.35000000 0.85000000 0.40000000 0.002643
-0.05000000 0.65000000 0.70000000 0.002643
0.65000000 -0.35000000 0.65000000 0.002644
0.50000000 -0.85000000 0.40000000 0.002644
-0.10000000 -0.60000000 0.75000000 0.002644
-0.95000000 -0.10000000 0.55000000 0.002645
0.55000000 -0.50000000 0.65000000 0.002645
0.95000000 -0.40000000 0.35000000 0.002646
-0.60000000 -0.45000000 -1.00000000 0.002647
0.75000000 -0.25000000 0.60000000 0.002647
1.00000000 -0.70000000 0.15000000 0.002647
0.35000000 0.40000000 0.75000000 0.002648
0.70000000 0.45000000 -0.80000000 0.002648
-0.95000000 -0.95000000 0.00000000 0.002648
-0.35000000 0.80000000 0.50000000 0.002649
-0.75000000 0.85000000 -0.45000000 0.002649
-0.40000000 0.45000000 0.75000000 0.002649
-0.55000000 -0.35000000 0.75000000 0.002650
0.90000000 -0.50000000 0.35000000 0.002650
0.10000000 0.70000000 0.65000000 0.002650
-0.45000000 0.60000000 0.65000000 0.002651
0.00000000 -0.60000000 0.75000000 0.002652
0.80000000 -0.75000000 -0.50000000 0.002652
-0.80000000 0.90000000 -0.30000000 0.002653
-0.70000000 0.60000000 0.50000000 0.002654
-0.55000000 0.40000000 -1.00000000 0.002655
-0.70000000 0.65000000 0.45000000 0.002655
0.45000000 -0.50000000 0.70000000 0.002655
0.05000000 0.55000000 0.75000000 0.002656
0.85000000 -0.10000000 -0.80000000 0.002656
0.40000000 -0.40000000 0.75000000 0.002656
-0.45000000 0.85000000 0.40000000 0.002657
-0.65000000 -0.40000000 0.70000000 0.002658
-1.00000000 -0.60000000 -0.55000000 0.002659
0.40000000 0.90000000 -0.60000000 0.002660
-0.85000000 -1.00000000 -0.25000000 0.002660
0.45000000 -0.60000000 0.65000000 0.002662
-0.05000000 -0.60000000 0.75000000 0.002664
0.50000000 -0.70000000 -0.85000000 0.002665
-0.35000000 0.60000000 -0.95000000 0.002666
-0.50000000 -0.40000000 0.75000000 0.002666
-0.65000000 -0.10000000 0.75000000 0.002667
0.85000000 -0.95000000 0.00000000 0.002667
-0.75000000 0.05000000 0.70000000 0.002669
-0.30000000 0.60000000 0.70000000 0.002669
0.25000000 -0.95000000 -0.75000000 0.002669
-0.30000000 0.75000000 -0.85000000 0.002669
0.20000000 0.50000000 0.75000000 0.002672
0.35000000 0.55000000 -0.95000000 0.002672
-0.55000000 0.60000000 0.60000000 0.002672
0.10000000 -0.70000000 0.70000000 0.002673
0.35000000 0.85000000 -0.70000000 0.002673
-0.75000000 0.55000000 0.50000000 0.002676
-0.95000000 -0.70000000 -0.50000000 0.002676
0.90000000 -0.90000000 -0.05000000 0.002676
-0.75000000 -0.10000000 0.70000000 0.002676
0.95000000 0.25000000 -0.60000000 0.002677
0.70000000 0.80000000 -0.45000000 0.002677
-0.95000000 0.00000000 0.55000000 0.002678
-0.15000000 0.55000000 0.75000000 0.002678
-0.25000000 -0.55000000 0.75000000 0.002678
-0.05000000 -0.95000000 -0.80000000 0.002679
0.85000000 -0.95000000 -0.10000000 0.002680
0.80000000 0.00000000 -0.85000000 0.002680
-0.75000000 1.00000000 0.10000000 0.002683
0.80000000 -0.65000000 0.35000000 0.002683
-0.30000000 0.90000000 -0.70000000 0.002683
-0.75000000 0.40000000 0.60000000 0.002683
-0.80000000 0.55000000 0.45000000 0.002684
0.20000000 -0.80000000 0.60000000 0.002684
-0.75000000 -0.80000000 -0.65000000 0.002685
-0.50000000 -0.70000000 -0.90000000 0.002685
0.55000000 0.25000000 -1.00000000 0.002685
0.10000000 0.65000000 -0.95000000 0.002686
-0.20000000 -0.70000000 0.70000000 0.002686
0.50000000 -0.25000000 0.75000000 0.002688
0.35000000 0.80000000 0.45000000 0.002688
0.65000000 -0.90000000 -0.50000000 0.002688
-0.35000000 -0.50000000 0.75000000 0.002689
-0.80000000 -0.75000000 -0.65000000 0.002689
0.95000000 0.15000000 0.40000000 0.002690
0.40000000 -0.55000000 -1.00000000 0.002691
-0.70000000 -0.55000000 0.60000000 0.002693
0.45000000 -0.80000000 -0.80000000 0.002693
0.65000000 -0.55000000 0.55000000 0.002695
0.65000000 0.15000000 -0.95000000 0.002696
-0.65000000 -0.60000000 0.60000000 0.002697
0.60000000 0.65000000 0.45000000 0.002697
0.70000000 0.35000000 -0.85000000 0.002698
0.75000000 0.80000000 0.25000000 0.002698
-1.00000000 -0.20000000 0.50000000 0.002698
-0.65000000 0.05000000 0.75000000 0.002699
0.50000000 -0.55000000 0.65000000 0.002699
0.45000000 -0.90000000 -0.70000000 0.002699
-0.75000000 -0.75000000 0.40000000 0.002700
-0.30000000 0.50000000 0.75000000 0.002701
-0.70000000 -0.30000000 0.70000000 0.002701
0.80000000 -0.25000000 0.55000000 0.002702
0.70000000 -0.20000000 0.65000000 0.002702
0.45000000 -0.50000000 -1.00000000 0.002702
-0.75000000 -0.75000000 -0.70000000 0.002703
0.85000000 -0.05000000 -0.80000000 0.002703
0.95000000 -0.35000000 -0.60000000 0.002703
0.25000000 -0.65000000 -1.00000000 0.002704
0.20000000 0.85000000 0.45000000 0.002704
0.55000000 0.55000000 -0.85000000 0.002704
0.80000000 -0.10000000 -0.85000000 0.002705
-0.90000000 0.00000000 -0.85000000 0.002705
-0.30000000 0.85000000 0.45000000 0.002706
-0.60000000 0.95000000 -0.45000000 0.002706
0.40000000 -0.70000000 -0.90000000 0.002707
0.50000000 -0.75000000 0.50000000 0.002707
0.80000000 0.75000000 0.25000000 0.002707
0.10000000 0.75000000 0.60000000 0.002708
0.30000000 -0.70000000 0.65000000 0.002708
-0.95000000 0.05000000 -0.80000000 0.002708
0.45000000 0.60000000 0.60000000 0.002709
-0.90000000 0.25000000 -0.80000000 0.002709
-0.90000000 -0.80000000 -0.45000000 0.002710
-0.15000000 0.70000000 0.65000000 0.002710
0.50000000 -1.00000000 0.30000000 0.002710
-0.95000000 -0.05000000 0.55000000 0.002710
0.50000000 -0.80000000 0.45000000 0.002710
-0.85000000 0.20000000 0.60000000 0.002711
-0.45000000 0.80000000 0.45000000 0.002711
-0.90000000 -0.50000000 0.45000000 0.002712
-0.70000000 -0.25000000 -1.00000000 0.002715
-0.65000000 -0.05000000 0.75000000 0.002716
0.55000000 -0.95000000 0.30000000 0.002716
0.60000000 -0.60000000 -0.85000000 0.002716
-0.70000000 -0.45000000 0.65000000 0.002717
-0.45000000 0.80000000 -0.75000000 0.002718
0.75000000 0.45000000 -0.75000000 0.002718
-0.55000000 0.95000000 0.30000000 0.002718
-0.90000000 -0.30000000 0.55000000 0.002719
0.90000000 0.30000000 -0.65000000 0.002720
-0.90000000 -0.10000000 -0.85000000 0.002723
-0.65000000 -0.65000000 -0.85000000 0.002726
-0.75000000 0.00000000 0.70000000 0.002726
-0.20000000 -1.00000000 -0.75000000 0.002727
-0.75000000 -0.05000000 0.70000000 0.002727
-0.80000000 0.15000000 0.65000000 0.002727
-0.80000000 -0.70000000 0.40000000 0.002727
-0.80000000 -0.45000000 -0.85000000 0.002727
0.80000000 -0.35000000 -0.80000000 0.002729
-0.65000000 0.00000000 0.75000000 0.002729
0.60000000 0.20000000 0.70000000 0.002729
0.00000000 0.55000000 0.75000000 0.002730
-0.60000000 -0.25000000 0.75000000 0.002730
-0.15000000 0.80000000 0.55000000 0.002731
1.00000000 -0.50000000 -0.45000000 0.002732
0.60000000 0.40000000 -0.90000000 0.002733
-0.40000000 0.55000000 0.70000000 0.002734
0.45000000 0.75000000 0.45000000 0.002734
-1.00000000 -0.80000000 0.20000000 0.002734
-0.55000000 0.75000000 0.45000000 0.002734
-0.55000000 0.30000000 0.75000000 0.002736
0.70000000 -0.55000000 -0.80000000 0.002737
0.70000000 0.55000000 0.45000000 0.002737
0.30000000 -0.95000000 0.40000000 0.002739
0.65000000 -0.80000000 0.35000000 0.002739
-0.80000000 -0.40000000 0.60000000 0.002740
0.15000000 -0.55000000 0.75000000 0.002740
0.45000000 0.75000000 -0.75000000 0.002740
-0.65000000 -1.00000000 -0.50000000 0.002741
-0.65000000 0.95000000 -0.40000000 0.002741
0.55000000 -0.65000000 0.55000000 0.002741
0.25000000 -0.50000000 0.75000000 0.002743
-0.50000000 -0.55000000 0.70000000 0.002743
-0.10000000 0.55000000 0.75000000 0.002744
-0.95000000 -0.15000000 -0.80000000 0.002745
-0.25000000 0.70000000 -0.90000000 0.002745
-0.95000000 -0.30000000 0.50000000 0.002748
-0.80000000 -0.55000000 -0.80000000 0.002749
-0.80000000 0.20000000 -0.90000000 0.002749
0.55000000 0.30000000 0.70000000 0.002749
-0.75000000 0.15000000 -0.95000000 0.002750
1.00000000 -0.30000000 0.35000000 0.002750
0.80000000 -0.05000000 -0.85000000 0.002750
0.10000000 -1.00000000 -0.75000000 0.002751
0.80000000 0.65000000 -0.50000000 0.002751
0.95000000 -0.70000000 0.20000000 0.002751
0.70000000 0.30000000 0.60000000 0.002752
0.20000000 0.90000000 -0.70000000 0.002756
-1.00000000 0.55000000 -0.50000000 0.002757
-0.55000000 -0.95000000 0.35000000 0.002757
0.30000000 -0.90000000 0.45000000 0.002757
-1.00000000 -0.45000000 0.40000000 0.002758
0.40000000 -0.90000000 0.40000000 0.002758
0.90000000 -0.40000000 -0.65000000 0.002758
-0.45000000 0.40000000 0.75000000 0.002759
1.00000000 -0.45000000 0.30000000 0.002759
-0.75000000 0.60000000 0.45000000 0.002759
0.90000000 0.30000000 0.40000000 0.002760
-0.05000000 0.55000000 0.75000000 0.002761
0.25000000 0.60000000 -0.95000000 0.002761
-0.95000000 -0.70000000 0.30000000 0.002761
0.85000000 0.30000000 0.45000000 0.002761
0.00000000 -1.00000000 0.45000000 0.002763
-0.25000000 0.95000000 -0.65000000 0.002764
0.35000000 0.60000000 0.65000000 0.002764
-0.20000000 -0.55000000 0.75000000 0.002764
-0.60000000 -1.00000000 -0.55000000 0.002764
-0.10000000 -1.00000000 0.45000000 0.002765
-0.35000000 0.70000000 0.60000000 0.002766
0.55000000 -0.35000000 -1.00000000 0.002767
0.15000000 0.95000000 -0.65000000 0.002767
0.20000000 0.60000000 0.70000000 0.002768
-1.00000000 0.50000000 -0.55000000 0.002770
-0.60000000 0.85000000 -0.60000000 0.002770
0.05000000 0.80000000 0.55000000 0.002771
-0.55000000 0.55000000 -0.90000000 0.002772
-0.55000000 0.80000000 0.40000000 0.002772
0.85000000 0.75000000 0.20000000 0.002774
0.25000000 0.65000000 0.65000000 0.002775
-0.90000000 -0.05000000 -0.85000000 0.002775
-0.05000000 -0.05000000 0.75000000 0.002777
-0.80000000 -0.90000000 -0.45000000 0.002778
-0.40000000 -0.45000000 0.75000000 0.002779
0.30000000 0.65000000 -0.90000000 0.002779
-0.15000000 0.60000000 -1.00000000 0.002781
-0.70000000 -0.50000000 -0.90000000 0.002781
0.45000000 0.80000000 0.40000000 0.002781
0.25000000 0.95000000 0.35000000 0.002782
0.70000000 0.10000000 0.65000000 0.002783
0.00000000 -0.05000000 0.75000000 0.002783
0.75000000 0.85000000 0.20000000 0.002784
0.60000000 -0.60000000 0.55000000 0.002785
0.75000000 -0.55000000 -0.75000000 0.002785
0.65000000 -0.25000000 -0.95000000 0.002786
0.10000000 -0.70000000 -1.00000000 0.002786
-0.25000000 -0.75000000 0.65000000 0.002787
0.75000000 0.75000000 -0.45000000 0.002787
0.45000000 0.25000000 0.75000000 0.002788
-0.05000000 -0.10000000 0.75000000 0.002788
-1.00000000 0.10000000 0.50000000 0.002788
0.85000000 0.15000000 0.50000000 0.002789
-0.15000000 0.75000000 0.60000000 0.002790
0.05000000 0.70000000 0.65000000 0.002790
-0.90000000 -0.35000000 -0.80000000 0.002790
0.70000000 0.20000000 -0.90000000 0.002791
-0.30000000 -0.50000000 0.75000000 0.002791
-0.95000000 0.25000000 -0.75000000 0.002791
-0.95000000 -0.50000000 0.40000000 0.002791
-0.55000000 -0.60000000 0.65000000 0.002792
-0.60000000 0.20000000 0.75000000 0.002793
1.00000000 0.05000000 -0.60000000 0.002793
0.50000000 0.15000000 0.75000000 0.002794
0.75000000 0.15000000 0.60000000 0.002795
-0.10000000 -0.05000000 0.75000000 0.002795
0.05000000 -0.70000000 0.70000000 0.002795
-0.05000000 0.00000000 0.75000000 0.002796
-0.50000000 0.35000000 0.75000000 0.002796
0.40000000 -0.70000000 0.60000000 0.002797
-0.70000000 -0.95000000 -0.50000000 0.002798
0.00000000 -0.10000000 0.75000000 0.002799
0.00000000 0.00000000 0.75000000 0.002800
-0.95000000 -0.60000000 0.35000000 0.002800
-0.60000000 -0.45000000 0.70000000 0.002800
0.95000000 -0.80000000 -0.20000000 0.002800
-0.10000000 -0.10000000 0.75000000 0.002800
-0.50000000 -0.70000000 0.60000000 0.002803
-0.40000000 -0.75000000 0.60000000 0.002804
-0.35000000 0.75000000 0.55000000 0.002805
-0.05000000 -1.00000000 0.45000000 0.002806
0.80000000 0.50000000 -0.65000000 0.002807
0.05000000 0.60000000 -1.00000000 0.002807
0.65000000 0.60000000 0.45000000 0.002809
0.55000000 0.95000000 0.25000000 0.002810
-0.60000000 -0.70000000 0.55000000 0.002811
-0.55000000 -0.90000000 -0.70000000 0.002811
0.55000000 -0.65000000 -0.85000000 0.002811
0.70000000 -0.45000000 -0.85000000 0.002813
-0.95000000 0.70000000 0.25000000 0.002813
0.30000000 0.55000000 0.70000000 0.002814
0.05000000 -0.05000000 0.75000000 0.002814
-0.80000000 -0.50000000 0.55000000 0.002814
-0.15000000 -0.70000000 0.70000000 0.002815
0.50000000 -0.90000000 0.35000000 0.002815
0.15000000 -0.90000000 0.50000000 0.002816
-1.00000000 0.25000000 0.45000000 0.002817
1.00000000 -0.15000000 -0.60000000 0.002818
0.70000000 0.90000000 -0.30000000 0.002818
-0.10000000 0.00000000 0.75000000 0.002818
-0.85000000 0.90000000 -0.20000000 0.002819
0.35000000 0.75000000 -0.80000000 0.002819
-0.95000000 -0.95000000 -0.05000000 0.002820
-0.80000000 -0.30000000 -0.90000000 0.002821
-0.35000000 -0.65000000 -1.00000000 0.002821
-0.25000000 -0.90000000 0.50000000 0.002821
0.95000000 0.10000000 -0.65000000 0.002822
-0.05000000 -0.15000000 0.75000000 0.002823
-0.55000000 -0.50000000 0.70000000 0.002823
-0.70000000 0.70000000 0.40000000 0.002824
-0.10000000 0.70000000 0.65000000 0.002824
-0.90000000 0.45000000 -0.70000000 0.002826
0.05000000 0.00000000 0.75000000 0.002826
0.90000000 -0.60000000 -0.50000000 0.002826
0.90000000 -0.60000000 0.30000000 0.002827
-0.10000000 -0.15000000 0.75000000 0.002827
0.70000000 0.40000000 0.55000000 0.002828
-0.15000000 -0.55000000 0.75000000 0.002828
0.90000000 0.70000000 -0.30000000 0.002830
0.60000000 0.35000000 0.65000000 0.002830
0.25000000 1.00000000 -0.55000000 0.002831
1.00000000 0.40000000 -0.45000000 0.002831
0.10000000 -0.55000000 0.75000000 0.002831
0.80000000 -0.60000000 -0.65000000 0.002831
-0.80000000 -0.20000000 0.65000000 0.002831
0.60000000 -0.25000000 0.70000000 0.002832
-0.65000000 0.35000000 -0.95000000 0.002833
-0.75000000 -0.35000000 0.65000000 0.002833
0.90000000 -0.20000000 0.45000000 0.002833
-0.75000000 -0.25000000 -0.95000000 0.002833
0.05000000 -0.10000000 0.75000000 0.002834
0.80000000 -0.70000000 -0.55000000 0.002834
-0.50000000 -0.55000000 -1.00000000 0.002835
-0.15000000 -0.10000000 0.75000000 0.002835
-0.65000000 0.25000000 -1.00000000 0.002836
-0.15000000 -0.05000000 0.75000000 0.002838
0.15000000 -0.75000000 0.65000000 0.002838
0.45000000 0.70000000 0.50000000 0.002839
0.65000000 -0.45000000 0.60000000 0.002839
0.65000000 -0.95000000 0.25000000 0.002840
0.25000000 0.75000000 0.55000000 0.002840
0.00000000 -0.15000000 0.75000000 0.002840
0.35000000 -0.65000000 -0.95000000 0.002840
0.15000000 -0.95000000 0.45000000 0.002840
0.30000000 -0.45000000 0.75000000 0.002840
0.50000000 -0.20000000 0.75000000 0.002841
0.25000000 0.45000000 0.75000000 0.002841
0.15000000 0.50000000 0.75000000 0.002841
0.55000000 0.35000000 -0.95000000 0.002841
0.80000000 0.40000000 0.45000000 0.002842
-0.40000000 -0.90000000 0.45000000 0.002844
-0.45000000 -0.40000000 0.75000000 0.002846
0.65000000 0.80000000 -0.50000000 0.002846
-0.10000000 0.80000000 0.55000000 0.002846
-0.35000000 0.95000000 0.35000000 0.002846
0.60000000 0.10000000 -1.00000000 0.002847
0.45000000 0.65000000 0.55000000 0.002848
0.60000000 -0.50000000 -0.90000000 0.002848
-0.05000000 0.05000000 0.75000000 0.002849
0.45000000 -0.85000000 -0.75000000 0.002850
-0.85000000 0.45000000 -0.75000000 0.002850
0.00000000 0.05000000 0.75000000 0.002850
0.45000000 -0.30000000 0.75000000 0.002851
-0.15000000 -0.15000000 0.75000000 0.002851
0.95000000 0.55000000 0.25000000 0.002852
-0.25000000 -0.95000000 0.45000000 0.002853
-0.55000000 -0.85000000 -0.75000000 0.002853
0.60000000 0.45000000 0.60000000 0.002853
-0.80000000 -0.85000000 0.30000000 0.002853
-0.85000000 0.55000000 0.40000000 0.002854
0.80000000 0.60000000 -0.55000000 0.002855
-0.55000000 0.65000000 0.55000000 0.002855
0.30000000 -0.60000000 0.70000000 0.002856
-0.45000000 1.00000000 -0.50000000 0.002856
0.95000000 -0.20000000 -0.65000000 0.002858
-0.25000000 -0.85000000 0.55000000 0.002858
-0.55000000 -0.30000000 0.75000000 0.002858
0.55000000 -0.35000000 0.70000000 0.002859
-0.60000000 0.65000000 -0.80000000 0.002859
-0.70000000 -0.85000000 0.35000000 0.002861
-0.90000000 0.20000000 0.55000000 0.002862
-0.20000000 -0.70000000 -1.00000000 0.002862
0.05000000 0.75000000 0.60000000 0.002862
-0.25000000 -0.50000000 0.75000000 0.002864
-0.55000000 -0.50000000 -1.00000000 0.002864
0.15000000 0.90000000 0.40000000 0.002864
-0.55000000 0.70000000 0.50000000 0.002864
0.20000000 0.75000000 -0.85000000 0.002865
-0.15000000 0.00000000 0.75000000 0.002865
0.00000000 0.70000000 0.65000000 0.002866
-0.95000000 -0.40000000 0.45000000 0.002866
-0.45000000 0.65000000 0.60000000 0.002867
-0.10000000 -0.20000000 0.75000000 0.002867
-0.95000000 0.60000000 -0.50000000 0.002868
0.00000000 0.80000000 0.55000000 0.002869
0.10000000 -0.05000000 0.75000000 0.002869
0.80000000 0.15000000 0.55000000 0.002869
-0.70000000 0.20000000 0.70000000 0.002869
-0.30000000 -0.65000000 0.70000000 0.002869
-0.25000000 -0.80000000 0.60000000 0.002870
-0.45000000 -0.85000000 -0.80000000 0.002871
0.80000000 0.30000000 0.50000000 0.002871
0.95000000 -0.20000000 0.40000000 0.002872
-0.60000000 -0.20000000 0.75000000 0.002872
0.05000000 0.05000000 0.75000000 0.002872
-0.10000000 0.05000000 0.75000000 0.002873
0.00000000 -0.70000000 0.70000000 0.002873
-0.05000000 -0.20000000 0.75000000 0.002873
0.80000000 0.35000000 -0.75000000 0.002873
-0.15000000 0.65000000 -0.95000000 0.002874
-0.10000000 -0.55000000 0.75000000 0.002874
-0.85000000 -0.50000000 0.50000000 0.002874
-0.25000000 0.90000000 0.40000000 0.002874
-0.85000000 -0.85000000 -0.45000000 0.002874
-0.35000000 -0.45000000 0.75000000 0.002875
-0.75000000 1.00000000 -0.15000000 0.002875
0.10000000 0.00000000 0.75000000 0.002875
0.90000000 -0.80000000 -0.30000000 0.002876
-0.05000000 0.70000000 0.65000000 0.002877
-0.80000000 0.30000000 0.60000000 0.002879
0.05000000 -0.15000000 0.75000000 0.002879
0.20000000 -0.65000000 0.70000000 0.002879
-0.65000000 0.30000000 0.70000000 0.002879
-0.15000000 -0.20000000 0.75000000 0.002880
0.40000000 -0.85000000 0.45000000 0.002881
0.65000000 0.25000000 0.65000000 0.002881
-0.25000000 0.50000000 0.75000000 0.002881
0.20000000 -0.50000000 0.75000000 0.002882
0.40000000 0.30000000 0.75000000 0.002882
0.75000000 -1.00000000 -0.25000000 0.002882
-0.50000000 -0.35000000 0.75000000 0.002882
0.70000000 -0.15000000 0.65000000 0.002883
-0.95000000 -0.35000000 -0.75000000 0.002883
-0.70000000 0.35000000 0.65000000 0.002883
0.25000000 0.70000000 0.60000000 0.002884
0.35000000 -0.95000000 -0.70000000 0.002885
0.05000000 -0.55000000 0.75000000 0.002885
-0.95000000 -0.65000000 -0.55000000 0.002886
0.30000000 -0.85000000 0.50000000 0.002886
-0.65000000 -0.50000000 0.65000000 0.002886
-0.90000000 0.40000000 0.45000000 0.002887
0.75000000 0.40000000 0.50000000 0.002887
0.10000000 1.00000000 0.35000000 0.002888
-0.10000000 -0.70000000 0.70000000 0.002888
-0.70000000 0.85000000 -0.50000000 0.002889
0.35000000 0.75000000 0.50000000 0.002889
-0.95000000 -0.60000000 -0.60000000 0.002889
-0.20000000 -0.10000000 0.75000000 0.002890
-0.40000000 -0.60000000 0.70000000 0.002891
0.75000000 -0.70000000 0.35000000 0.002891
0.75000000 0.30000000 0.55000000 0.002892
0.10000000 -0.10000000 0.75000000 0.002893
0.15000000 -0.85000000 0.55000000 0.002893
-0.05000000 0.80000000 0.55000000 0.002893
-0.60000000 0.55000000 0.60000000 0.002894
-0.35000000 0.45000000 0.75000000 0.002894
0.90000000 0.50000000 -0.50000000 0.002895
0.35000000 0.80000000 -0.75000000 0.002895
-0.20000000 -0.15000000 0.75000000 0.002895
0.95000000 0.70000000 0.10000000 0.002897
0.00000000 -0.20000000 0.75000000 0.002897
-0.40000000 -0.95000000 0.40000000 0.002898
-0.40000000 -0.80000000 0.55000000 0.002898
0.70000000 -0.30000000 -0.90000000 0.002898
-0.95000000 0.20000000 0.50000000 0.002898
0.70000000 -0.55000000 0.50000000 0.002899
0.95000000 0.45000000 0.30000000 0.002900
0.60000000 0.70000000 0.40000000 0.002901
-0.05000000 -0.55000000 0.75000000 0.002901
-0.20000000 -0.05000000 0.75000000 0.002901
0.85000000 0.40000000 0.40000000 0.002902
0.15000000 0.70000000 -0.90000000 0.002902
0.50000000 0.55000000 0.60000000 0.002902
-0.60000000 -0.95000000 -0.60000000 0.002903
0.10000000 -0.75000000 -0.95000000 0.002903
-0.30000000 0.80000000 -0.80000000 0.002903
0.35000000 -0.40000000 0.75000000 0.002904
-0.70000000 0.45000000 0.60000000 0.002905
-0.45000000 -0.65000000 -0.95000000 0.002905
-0.20000000 1.00000000 0.35000000 0.002906
-0.05000000 -0.70000000 0.70000000 0.002906
0.30000000 -0.75000000 0.60000000 0.002906
0.00000000 -0.55000000 0.75000000 0.002906
-0.10000000 0.75000000 0.60000000 0.002907
-0.60000000 -0.55000000 0.65000000 0.002907
0.70000000 -0.75000000 0.35000000 0.002909
-0.95000000 0.00000000 -0.80000000 0.002910
0.60000000 -0.20000000 -1.00000000 0.002911
0.35000000 0.95000000 -0.55000000 0.002911
0.80000000 0.55000000 -0.60000000 0.002912
0.85000000 -0.95000000 -0.05000000 0.002912
-0.95000000 0.50000000 -0.60000000 0.002913
-0.20000000 -0.20000000 0.75000000 0.002913
-0.65000000 0.45000000 -0.90000000 0.002913
0.40000000 -0.35000000 0.75000000 0.002915
0.10000000 0.05000000 0.75000000 0.002915
-0.85000000 -0.25000000 0.60000000 0.002916
0.50000000 0.10000000 0.75000000 0.002916
-0.10000000 -0.25000000 0.75000000 0.002916
0.30000000 0.40000000 0.75000000 0.002917
-0.15000000 -0.25000000 0.75000000 0.002917
-0.85000000 0.80000000 0.25000000 0.002917
-0.40000000 -0.75000000 -0.90000000 0.002918
-0.20000000 -0.50000000 0.75000000 0.002919
-0.90000000 -0.75000000 0.30000000 0.002920
-0.25000000 0.60000000 0.70000000 0.002920
-0.30000000 0.85000000 -0.75000000 0.002921
0.80000000 0.80000000 0.20000000 0.002923
0.75000000 -0.20000000 0.60000000 0.002923
-0.15000000 0.05000000 0.75000000 0.002924
-0.40000000 -0.85000000 0.50000000 0.002924
0.75000000 -0.80000000 -0.50000000 0.002924
0.35000000 0.35000000 0.75000000 0.002925
-0.45000000 0.75000000 0.50000000 0.002925
0.80000000 -0.65000000 -0.60000000 0.002926
-0.50000000 0.90000000 -0.60000000 0.002926
0.40000000 -0.75000000 0.55000000 0.002927
-0.45000000 -0.95000000 -0.70000000 0.002927
0.70000000 -0.35000000 0.60000000 0.002929
-0.95000000 -0.10000000 -0.80000000 0.002930
-0.30000000 -0.45000000 0.75000000 0.002931
-0.05000000 -0.25000000 0.75000000 0.002933
0.00000000 0.10000000 0.75000000 0.002933
0.70000000 0.05000000 0.65000000 0.002933
-0.05000000 0.10000000 0.75000000 0.002935
0.35000000 -1.00000000 0.35000000 0.002935
0.70000000 -0.85000000 -0.50000000 0.002936
-0.90000000 -0.55000000 -0.70000000 0.002936
-0.20000000 0.00000000 0.75000000 0.002937
-0.70000000 1.00000000 -0.25000000 0.002937
-0.20000000 -0.25000000 0.75000000 0.002938
0.90000000 0.10000000 0.45000000 0.002938
0.30000000 -0.75000000 -0.90000000 0.002939
-0.90000000 -0.40000000 0.50000000 0.002939
0.05000000 -0.20000000 0.75000000 0.002940
0.15000000 -0.80000000 0.60000000 0.002940
0.10000000 -0.15000000 0.75000000 0.002941
-0.20000000 -0.75000000 -0.95000000 0.002942
-1.00000000 0.75000000 0.15000000 0.002942
0.75000000 0.35000000 -0.80000000 0.002943
0.30000000 -0.80000000 0.55000000 0.002943
0.50000000 -0.15000000 0.75000000 0.002944
-0.40000000 -0.40000000 0.75000000 0.002946
0.00000000 0.75000000 0.60000000 0.002947
0.05000000 0.65000000 -0.95000000 0.002947
-0.65000000 0.85000000 -0.55000000 0.002949
0.05000000 0.10000000 0.75000000 0.002949
0.15000000 -0.05000000 0.75000000 0.002950
0.55000000 0.50000000 0.60000000 0.002950
0.15000000 0.00000000 0.75000000 0.002951
-0.90000000 0.75000000 0.25000000 0.002951
0.60000000 -1.00000000 0.25000000 0.002952
0.35000000 0.65000000 0.60000000 0.002953
0.60000000 -0.90000000 -0.55000000 0.002953
-0.60000000 0.15000000 0.75000000 0.002954
0.85000000 -0.20000000 0.50000000 0.002954
-0.80000000 0.10000000 0.65000000 0.002955
0.45000000 0.90000000 -0.55000000 0.002955
0.60000000 0.85000000 0.30000000 0.002956
-0.85000000 0.35000000 -0.80000000 0.002957
0.55000000 -0.70000000 0.50000000 0.002958
-0.30000000 0.65000000 0.65000000 0.002958
0.40000000 -0.80000000 0.50000000 0.002959
-0.15000000 -0.30000000 0.75000000 0.002959
-0.25000000 -0.15000000 0.75000000 0.002960
0.50000000 0.35000000 0.70000000 0.002960
-0.90000000 0.70000000 -0.45000000 0.002960
-0.70000000 -0.25000000 0.70000000 0.002960
-0.85000000 -0.40000000 0.55000000 0.002960
0.70000000 0.95000000 0.10000000 0.002960
-0.10000000 0.60000000 -1.00000000 0.002960
0.55000000 -0.45000000 -0.95000000 0.002961
-0.05000000 0.75000000 0.60000000 0.002961
-0.50000000 0.55000000 0.65000000 0.002961
-0.10000000 0.10000000 0.75000000 0.002962
0.00000000 -0.25000000 0.75000000 0.002963
0.75000000 0.55000000 0.40000000 0.002963
-0.15000000 -0.50000000 0.75000000 0.002963
-0.25000000 -0.10000000 0.75000000 0.002964
0.60000000 0.15000000 0.70000000 0.002964
-0.60000000 0.50000000 -0.90000000 0.002964
-0.80000000 0.40000000 0.55000000 0.002965
0.80000000 -0.45000000 -0.75000000 0.002965
0.35000000 -0.85000000 -0.80000000 0.002965
0.25000000 -0.70000000 -0.95000000 0.002965
-0.30000000 -0.85000000 -0.85000000 0.002965
-0.25000000 -0.45000000 0.75000000 0.002966
0.95000000 -0.50000000 -0.50000000 0.002967
-0.25000000 -0.20000000 0.75000000 0.002967
-0.20000000 -0.30000000 0.75000000 0.002968
-1.00000000 -0.90000000 -0.10000000 0.002968
-1.00000000 -0.55000000 0.35000000 0.002969
-0.10000000 -0.30000000 0.75000000 0.002969
-0.60000000 -0.85000000 0.40000000 0.002969
-0.65000000 -0.95000000 -0.55000000 0.002971
0.10000000 0.50000000 0.75000000 0.002972
0.75000000 -0.55000000 0.45000000 0.002975
-0.60000000 -0.15000000 0.75000000 0.002975
-0.85000000 0.85000000 0.20000000 0.002976
0.15000000 -0.50000000 0.75000000 0.002976
-0.50000000 0.65000000 -0.85000000 0.002976
0.45000000 0.55000000 -0.90000000 0.002976
-0.75000000 0.30000000 -0.90000000 0.002977
-0.65000000 0.50000000 0.60000000 0.002977
0.00000000 0.60000000 -1.00000000 0.002977
0.45000000 0.20000000 0.75000000 0.002977
0.15000000 -0.10000000 0.75000000 0.002978
-0.60000000 -0.75000000 0.50000000 0.002978
-0.75000000 0.25000000 0.65000000 0.002979
-0.65000000 0.95000000 0.25000000 0.002979
-0.50000000 -0.75000000 0.55000000 0.002980
-0.65000000 -0.35000000 -1.00000000 0.002980
-0.25000000 -0.25000000 0.75000000 0.002982
-0.45000000 0.70000000 0.55000000 0.002982
0.15000000 0.05000000 0.75000000 0.002983
0.10000000 0.10000000 0.75000000 0.002984
0.25000000 -0.45000000 0.75000000 0.002984
-0.25000000 -0.05000000 0.75000000 0.002984
0.20000000 -1.00000000 0.40000000 0.002986
-0.95000000 -0.05000000 -0.80000000 0.002987
-0.45000000 -0.90000000 -0.75000000 0.002987
0.60000000 -0.40000000 0.65000000 0.002989
-0.85000000 -0.80000000 0.30000000 0.002989
-0.35000000 -0.70000000 0.65000000 0.002989
-0.45000000 0.50000000 0.70000000 0.002989
-0.35000000 -0.40000000 0.75000000 0.002991
0.35000000 0.70000000 0.55000000 0.002992
-0.85000000 -0.55000000 -0.75000000 0.002992
0.50000000 0.05000000 0.75000000 0.002992
-0.05000000 -0.30000000 0.75000000 0.002993
-0.20000000 -0.45000000 0.75000000 0.002993
-1.00000000 -0.15000000 0.50000000 0.002994
-1.00000000 0.10000000 -0.75000000 0.002994
-0.55000000 0.25000000 0.75000000 0.002995
-0.60000000 -0.80000000 0.45000000 0.002995
0.70000000 -0.10000000 0.65000000 0.002997
-0.20000000 -0.35000000 0.75000000 0.002997
-0.15000000 -0.35000000 0.75000000 0.002999
-0.25000000 -0.30000000 0.75000000 0.002999
-0.45000000 -0.65000000 0.65000000 0.003000
-0.20000000 -0.75000000 0.65000000 0.003000
-0.95000000 0.55000000 -0.55000000 0.003001
-0.20000000 0.05000000 0.75000000 0.003001
0.80000000 -0.20000000 0.55000000 0.003001
-0.50000000 0.50000000 -0.95000000 0.003001
-0.10000000 -0.50000000 0.75000000 0.003002
0.10000000 -0.20000000 0.75000000 0.003003
0.15000000 0.60000000 0.70000000 0.003006
-0.30000000 -0.40000000 0.75000000 0.003006
0.50000000 -0.10000000 0.75000000 0.003006
0.35000000 -0.55000000 0.70000000 0.003008
-0.25000000 -0.40000000 0.75000000 0.003008
0.05000000 -0.25000000 0.75000000 0.003008
0.95000000 -0.75000000 0.15000000 0.003009
0.35000000 -0.65000000 0.65000000 0.003010
-0.80000000 -0.15000000 0.65000000 0.003010
-0.45000000 -0.35000000 0.75000000 0.003011
0.75000000 0.90000000 -0.20000000 0.003011
-0.20000000 -0.40000000 0.75000000 0.003012
-0.25000000 -0.35000000 0.75000000 0.003012
1.00000000 0.00000000 -0.60000000 0.003012
-0.85000000 0.40000000 0.50000000 0.003013
0.65000000 1.00000000 -0.15000000 0.003013
-0.20000000 0.50000000 0.75000000 0.003016
-0.15000000 0.10000000 0.75000000 0.003016
-0.10000000 -0.35000000 0.75000000 0.003017
-0.65000000 -0.45000000 -0.95000000 0.003017
-0.75000000 0.65000000 0.40000000 0.003017
-0.55000000 -0.25000000 0.75000000 0.003018
-1.00000000 0.80000000 -0.05000000 0.003019
1.00000000 -0.55000000 0.25000000 0.003019
-0.50000000 -0.90000000 0.40000000 0.003020
-0.40000000 0.40000000 0.75000000 0.003020
0.35000000 0.50000000 0.70000000 0.003020
0.70000000 0.00000000 0.65000000 0.003021
-0.15000000 -0.45000000 0.75000000 0.003021
0.60000000 0.80000000 -0.55000000 0.003023
-0.90000000 -1.00000000 -0.10000000 0.003023
0.65000000 -0.30000000 0.65000000 0.003024
0.20000000 0.45000000 0.75000000 0.003024
-0.15000000 -0.40000000 0.75000000 0.003025
0.15000000 -0.15000000 0.75000000 0.003027
1.00000000 -0.10000000 -0.60000000 0.003027
-0.65000000 -0.35000000 0.70000000 0.003027
0.95000000 0.10000000 0.40000000 0.003028
-0.25000000 0.00000000 0.75000000 0.003028
0.95000000 0.40000000 -0.50000000 0.003028
-0.80000000 0.60000000 0.40000000 0.003028
0.10000000 -0.75000000 0.65000000 0.003028
-0.05000000 0.60000000 -1.00000000 0.003029
0.45000000 -0.65000000 0.60000000 0.003029
-0.95000000 0.35000000 -0.70000000 0.003029
0.00000000 -0.30000000 0.75000000 0.003029
0.45000000 -0.25000000 0.75000000 0.003029
0.50000000 -0.40000000 0.70000000 0.003029
0.50000000 0.00000000 0.75000000 0.003029
-1.00000000 0.80000000 0.00000000 0.003031
-0.35000000 -0.70000000 -0.95000000 0.003031
-0.80000000 0.95000000 0.10000000 0.003031
-0.80000000 0.80000000 -0.45000000 0.003032
0.10000000 -0.50000000 0.75000000 0.003032
0.75000000 0.10000000 0.60000000 0.003033
0.20000000 -0.85000000 -0.85000000 0.003033
0.50000000 -0.05000000 0.75000000 0.003034
-0.25000000 0.85000000 0.45000000 0.003034
-0.05000000 -0.50000000 0.75000000 0.003034
0.15000000 0.85000000 0.45000000 0.003034
0.10000000 -0.90000000 0.50000000 0.003036
0.80000000 -0.55000000 0.40000000 0.003037
0.50000000 0.80000000 -0.65000000 0.003037
0.10000000 1.00000000 -0.60000000 0.003037
-0.30000000 -0.35000000 0.75000000 0.003037
-0.20000000 -0.90000000 0.50000000 0.003039
0.90000000 0.75000000 -0.20000000 0.003039
0.40000000 0.55000000 0.65000000 0.003040
-1.00000000 -0.65000000 0.30000000 0.003040
0.00000000 0.15000000 0.75000000 0.003040
-0.30000000 0.80000000 0.50000000 0.003040
0.60000000 -0.20000000 0.70000000 0.003042
0.35000000 1.00000000 0.30000000 0.003042
0.35000000 -0.90000000 -0.75000000 0.003042
0.15000000 0.10000000 0.75000000 0.003042
-0.30000000 -0.20000000 0.75000000 0.003042
0.70000000 -0.05000000 0.65000000 0.003042
1.00000000 0.20000000 -0.55000000 0.003043
-0.30000000 -0.15000000 0.75000000 0.003044
0.35000000 -1.00000000 -0.65000000 0.003044
-0.30000000 -0.25000000 0.75000000 0.003045
-0.30000000 -0.30000000 0.75000000 0.003046
0.20000000 0.80000000 0.50000000 0.003047
-0.05000000 -0.35000000 0.75000000 0.003048
0.05000000 0.15000000 0.75000000 0.003049
-0.60000000 -0.10000000 0.75000000 0.003049
-0.05000000 0.15000000 0.75000000 0.003049
-0.50000000 -0.30000000 0.75000000 0.003049
-0.10000000 -0.40000000 0.75000000 0.003050
0.75000000 0.70000000 -0.50000000 0.003052
-1.00000000 -0.20000000 -0.75000000 0.003052
-0.10000000 -0.45000000 0.75000000 0.003053
0.20000000 0.00000000 0.75000000 0.003055
0.00000000 -0.50000000 0.75000000 0.003055
-0.30000000 -1.00000000 0.40000000 0.003056
-0.30000000 -0.10000000 0.75000000 0.003056
0.05000000 -0.50000000 0.75000000 0.003057
-0.60000000 0.10000000 0.75000000 0.003057
-0.75000000 0.50000000 -0.80000000 0.003057
0.60000000 0.25000000 -0.95000000 0.003058
-0.85000000 0.15000000 0.60000000 0.003059
0.20000000 -0.05000000 0.75000000 0.003059
-1.00000000 0.05000000 0.50000000 0.003059
0.75000000 -0.45000000 -0.80000000 0.003059
1.00000000 -0.30000000 -0.55000000 0.003059
0.65000000 0.30000000 -0.90000000 0.003060
0.40000000 0.50000000 -0.95000000 0.003060
-0.35000000 -0.35000000 0.75000000 0.003060
0.90000000 -0.65000000 -0.45000000 0.003060
-0.40000000 -0.35000000 0.75000000 0.003060
0.40000000 -0.95000000 0.35000000 0.003061
-0.10000000 0.65000000 -0.95000000 0.003062
0.55000000 0.45000000 -0.90000000 0.003062
-0.65000000 -0.65000000 0.55000000 0.003063
1.00000000 0.65000000 -0.15000000 0.003064
-0.15000000 -1.00000000 -0.75000000 0.003064
-0.90000000 -0.65000000 0.35000000 0.003065
0.90000000 -0.35000000 0.40000000 0.003065
-0.50000000 -0.85000000 0.45000000 0.003065
0.30000000 -0.40000000 0.75000000 0.003066
0.55000000 0.40000000 0.65000000 0.003067
0.40000000 1.00000000 -0.45000000 0.003068
-0.20000000 -0.85000000 0.55000000 0.003068
0.55000000 -0.75000000 0.45000000 0.003069
-0.85000000 0.85000000 -0.30000000 0.003069
0.10000000 -0.25000000 0.75000000 0.003069
-0.35000000 1.00000000 -0.55000000 0.003069
0.85000000 0.10000000 0.50000000 0.003070
0.05000000 0.50000000 0.75000000 0.003070
-0.70000000 0.10000000 -1.00000000 0.003071
0.25000000 -0.70000000 0.65000000 0.003072
0.85000000 0.50000000 0.35000000 0.003072
-0.25000000 -0.65000000 0.70000000 0.003072
0.40000000 0.25000000 0.75000000 0.003073
0.60000000 -0.50000000 0.60000000 0.003073
0.20000000 0.85000000 -0.75000000 0.003073
0.20000000 -0.45000000 0.75000000 0.003073
0.05000000 -0.30000000 0.75000000 0.003074
0.10000000 0.15000000 0.75000000 0.003075
0.30000000 0.50000000 -1.00000000 0.003077
-0.55000000 -0.65000000 -0.90000000 0.003077
0.25000000 -1.00000000 -0.70000000 0.003077
-0.85000000 -0.45000000 -0.80000000 0.003078
0.45000000 0.40000000 0.70000000 0.003078
0.20000000 0.05000000 0.75000000 0.003079
-0.10000000 0.15000000 0.75000000 0.003079
-0.95000000 0.75000000 -0.30000000 0.003081
0.60000000 1.00000000 -0.25000000 0.003082
0.15000000 -0.65000000 0.70000000 0.003083
0.85000000 -0.35000000 0.45000000 0.003083
-0.25000000 -0.80000000 -0.90000000 0.003083
-0.30000000 0.45000000 0.75000000 0.003083
0.50000000 -0.90000000 -0.65000000 0.003084
-0.05000000 -0.40000000 0.75000000 0.003085
-0.30000000 -0.05000000 0.75000000 0.003085
0.90000000 -0.15000000 0.45000000 0.003085
-0.95000000 0.30000000 0.45000000 0.003085
0.05000000 -1.00000000 -0.75000000 0.003085
0.00000000 -0.35000000 0.75000000 0.003086
-1.00000000 0.35000000 0.40000000 0.003086
0.15000000 -0.20000000 0.75000000 0.003087
0.65000000 -0.60000000 0.50000000 0.003087
0.70000000 0.75000000 -0.50000000 0.003087
0.20000000 0.55000000 -1.00000000 0.003087
0.20000000 -0.10000000 0.75000000 0.003087
-0.05000000 -0.45000000 0.75000000 0.003087
-0.35000000 0.55000000 0.70000000 0.003088
0.40000000 -0.50000000 0.70000000 0.003089
-0.95000000 0.75000000 0.20000000 0.003089
-0.20000000 1.00000000 -0.60000000 0.003089
-0.75000000 -0.55000000 0.55000000 0.003089
-0.50000000 -0.80000000 0.50000000 0.003089
-0.20000000 -0.80000000 0.60000000 0.003090
-0.45000000 -0.55000000 0.70000000 0.003091
0.75000000 -0.35000000 0.55000000 0.003092
-0.90000000 0.35000000 -0.75000000 0.003092
-0.50000000 0.30000000 0.75000000 0.003093
0.05000000 -0.70000000 -1.00000000 0.003093
-0.45000000 0.35000000 0.75000000 0.003093
0.15000000 -0.80000000 -0.90000000 0.003094
-1.00000000 0.65000000 0.25000000 0.003094
0.70000000 -0.45000000 0.55000000 0.003094
1.00000000 -0.05000000 -0.60000000 0.003094
0.10000000 -0.85000000 0.55000000 0.003095
0.50000000 0.65000000 -0.80000000 0.003095
-0.70000000 0.25000000 -0.95000000 0.003095
-0.20000000 0.10000000 0.75000000 0.003095
0.60000000 -0.65000000 0.50000000 0.003095
-0.35000000 -1.00000000 -0.70000000 0.003095
-0.60000000 0.35000000 0.70000000 0.003096
0.85000000 0.40000000 -0.65000000 0.003097
-0.60000000 -0.05000000 0.75000000 0.003098
-0.25000000 0.05000000 0.75000000 0.003098
-1.00000000 -0.90000000 0.00000000 0.003099
-0.35000000 -0.30000000 0.75000000 0.003099
0.45000000 -0.45000000 0.70000000 0.003099
0.20000000 0.80000000 -0.80000000 0.003099
-0.40000000 0.70000000 -0.85000000 0.003100
0.90000000 -0.85000000 0.10000000 0.003101
0.40000000 0.45000000 0.70000000 0.003102
0.55000000 0.25000000 0.70000000 0.003103
0.00000000 0.65000000 -0.95000000 0.003103
0.45000000 -0.65000000 -0.90000000 0.003104
0.30000000 0.90000000 -0.65000000 0.003105
-0.75000000 -0.40000000 -0.90000000 0.003107
-0.80000000 0.05000000 0.65000000 0.003107
-0.15000000 0.50000000 0.75000000 0.003108
0.10000000 -0.95000000 0.45000000 0.003108
-0.90000000 0.30000000 0.50000000 0.003110
-0.60000000 0.05000000 0.75000000 0.003110
0.85000000 0.20000000 -0.75000000 0.003111
0.40000000 -0.30000000 0.75000000 0.003112
-0.40000000 0.60000000 0.65000000 0.003113
0.25000000 0.40000000 0.75000000 0.003113
-0.20000000 -0.95000000 0.45000000 0.003113
-0.30000000 0.55000000 -1.00000000 0.003114
-0.65000000 0.40000000 0.65000000 0.003115
0.55000000 -0.80000000 0.40000000 0.003115
0.65000000 0.10000000 -0.95000000 0.003116
0.35000000 -0.35000000 0.75000000 0.003116
0.45000000 0.15000000 0.75000000 0.003117
0.65000000 0.65000000 0.40000000 0.003117
-0.85000000 0.30000000 0.55000000 0.003117
-0.90000000 -1.00000000 0.00000000 0.003118
0.00000000 -0.45000000 0.75000000 0.003119
-0.95000000 0.40000000 0.40000000 0.003120
0.35000000 0.30000000 0.75000000 0.003120
-0.35000000 -0.25000000 0.75000000 0.003120
-0.60000000 0.00000000 0.75000000 0.003121
0.15000000 0.15000000 0.75000000 0.003122
0.00000000 -0.40000000 0.75000000 0.003122
-0.90000000 -0.25000000 0.55000000 0.003122
-0.20000000 0.60000000 0.70000000 0.003123
0.15000000 -0.45000000 0.75000000 0.003123
-0.70000000 0.85000000 0.30000000 0.003124
-0.95000000 -0.45000000 -0.70000000 0.003126
-0.70000000 0.15000000 0.70000000 0.003126
0.20000000 0.10000000 0.75000000 0.003127
0.10000000 0.90000000 0.40000000 0.003128
0.05000000 -0.35000000 0.75000000 0.003128
0.10000000 -0.30000000 0.75000000 0.003129
0.20000000 0.65000000 0.65000000 0.003130
0.85000000 -0.50000000 -0.65000000 0.003130
-0.80000000 -0.10000000 0.65000000 0.003130
0.80000000 0.10000000 0.55000000 0.003130
-0.45000000 -0.30000000 0.75000000 0.003132
0.85000000 -0.75000000 0.25000000 0.003132
-0.65000000 -0.55000000 -0.90000000 0.003133
-0.35000000 -0.20000000 0.75000000 0.003133
-0.30000000 0.70000000 0.60000000 0.003133
0.20000000 -0.15000000 0.75000000 0.003133
0.75000000 -0.15000000 0.60000000 0.003134
-0.15000000 0.15000000 0.75000000 0.003134
-0.55000000 -0.20000000 0.75000000 0.003135
-0.30000000 0.00000000 0.75000000 0.003136
0.80000000 -0.35000000 0.50000000 0.003136
0.00000000 0.50000000 0.75000000 0.003136
0.30000000 0.35000000 0.75000000 0.003136
0.60000000 0.10000000 0.70000000 0.003137
-0.40000000 -0.30000000 0.75000000 0.003137
1.00000000 0.55000000 0.20000000 0.003138
1.00000000 -0.40000000 -0.50000000 0.003138
0.10000000 -0.80000000 0.60000000 0.003138
-0.20000000 0.90000000 0.40000000 0.003139
1.00000000 0.60000000 -0.25000000 0.003140
0.05000000 -0.45000000 0.75000000 0.003140
1.00000000 0.20000000 0.35000000 0.003141
-0.50000000 0.45000000 0.70000000 0.003141
-0.60000000 0.40000000 -0.95000000 0.003141
-0.05000000 0.65000000 -0.95000000 0.003142
0.55000000 -0.90000000 -0.60000000 0.003142
-0.85000000 0.75000000 -0.45000000 0.003143
0.70000000 0.60000000 0.40000000 0.003143
-0.55000000 -0.65000000 0.60000000 0.003143
0.10000000 -0.45000000 0.75000000 0.003143
0.25000000 -0.60000000 0.70000000 0.003143
0.55000000 0.80000000 -0.60000000 0.003144
0.05000000 1.00000000 0.35000000 0.003144
-0.35000000 -0.15000000 0.75000000 0.003145
-0.90000000 0.85000000 -0.20000000 0.003145
-0.90000000 0.80000000 0.20000000 0.003146
0.15000000 -0.25000000 0.75000000 0.003146
-0.35000000 -0.60000000 0.70000000 0.003146
0.50000000 0.50000000 -0.90000000 0.003148
-0.15000000 -0.70000000 -1.00000000 0.003150
0.50000000 -0.60000000 0.60000000 0.003151
-0.95000000 -0.85000000 -0.30000000 0.003151
-0.55000000 0.50000000 0.65000000 0.003152
-0.15000000 1.00000000 0.35000000 0.003152
0.65000000 0.50000000 -0.80000000 0.003153
-0.40000000 0.90000000 -0.65000000 0.003153
0.90000000 0.15000000 -0.70000000 0.003153
0.45000000 -0.20000000 0.75000000 0.003154
-0.15000000 -0.75000000 0.65000000 0.003155
0.25000000 -0.40000000 0.75000000 0.003155
-0.20000000 0.70000000 -0.90000000 0.003155
0.05000000 -0.40000000 0.75000000 0.003156
0.50000000 0.90000000 -0.50000000 0.003156
-0.10000000 0.50000000 0.75000000 0.003158
0.90000000 0.05000000 0.45000000 0.003158
0.85000000 0.60000000 0.30000000 0.003159
0.15000000 0.45000000 0.75000000 0.003159
0.50000000 0.40000000 -0.95000000 0.003159
-0.70000000 -0.20000000 0.70000000 0.003160
-0.75000000 -0.45000000 0.60000000 0.003161
0.05000000 0.20000000 0.75000000 0.003163
0.00000000 0.20000000 0.75000000 0.003163
0.05000000 -0.75000000 0.65000000 0.003164
-0.35000000 -0.10000000 0.75000000 0.003165
-0.60000000 -0.75000000 -0.80000000 0.003165
0.60000000 0.05000000 -1.00000000 0.003166
-0.40000000 0.50000000 -1.00000000 0.003166
-0.05000000 0.50000000 0.75000000 0.003166
-0.90000000 -0.75000000 -0.50000000 0.003167
0.95000000 0.30000000 0.35000000 0.003168
-0.70000000 -0.60000000 0.55000000 0.003168
0.95000000 -0.15000000 0.40000000 0.003169
0.55000000 -0.55000000 0.60000000 0.003169
0.60000000 -0.35000000 -0.95000000 0.003169
-0.70000000 -0.20000000 -1.00000000 0.003170
0.10000000 -0.35000000 0.75000000 0.003171
0.95000000 0.05000000 -0.65000000 0.003171
-0.50000000 -0.25000000 0.75000000 0.003173
0.50000000 0.60000000 0.55000000 0.003175
0.25000000 0.55000000 0.70000000 0.003175
0.55000000 0.80000000 0.35000000 0.003177
0.65000000 0.45000000 0.55000000 0.003177
-0.55000000 0.20000000 0.75000000 0.003178
-0.35000000 -0.75000000 0.60000000 0.003178
0.10000000 0.20000000 0.75000000 0.003178
0.45000000 0.50000000 0.65000000 0.003179
1.00000000 0.30000000 -0.50000000 0.003179
-0.05000000 0.20000000 0.75000000 0.003180
-0.55000000 0.40000000 0.70000000 0.003182
0.10000000 -0.40000000 0.75000000 0.003182
0.25000000 0.00000000 0.75000000 0.003182
-0.65000000 0.60000000 -0.80000000 0.003184
-0.80000000 0.00000000 0.65000000 0.003184
0.55000000 -0.30000000 0.70000000 0.003184
0.50000000 0.45000000 0.65000000 0.003185
-0.85000000 0.20000000 -0.85000000 0.003185
0.10000000 0.60000000 0.70000000 0.003186
0.20000000 -0.20000000 0.75000000 0.003186
-0.40000000 -0.25000000 0.75000000 0.003187
0.25000000 -0.05000000 0.75000000 0.003188
0.55000000 -0.55000000 -0.90000000 0.003189
0.65000000 -0.40000000 -0.90000000 0.003189
-0.80000000 -0.05000000 0.65000000 0.003190
0.60000000 -0.15000000 0.70000000 0.003190
-0.45000000 1.00000000 0.30000000 0.003191
0.70000000 -0.90000000 0.25000000 0.003191
0.20000000 0.15000000 0.75000000 0.003191
-1.00000000 -0.10000000 0.50000000 0.003192
0.20000000 -0.40000000 0.75000000 0.003192
0.30000000 0.85000000 0.40000000 0.003192
-0.30000000 0.75000000 0.55000000 0.003192
0.15000000 -0.30000000 0.75000000 0.003193
0.05000000 -0.90000000 0.50000000 0.003193
-0.25000000 0.10000000 0.75000000 0.003194
0.85000000 -0.15000000 0.50000000 0.003194
0.05000000 -0.75000000 -0.95000000 0.003195
0.15000000 -0.40000000 0.75000000 0.003196
0.80000000 -1.00000000 0.00000000 0.003197
-0.60000000 0.60000000 0.55000000 0.003197
-0.15000000 -0.90000000 0.50000000 0.003197
-0.75000000 -0.80000000 0.35000000 0.003197
0.25000000 0.05000000 0.75000000 0.003198
0.55000000 -0.45000000 0.65000000 0.003199
-0.90000000 0.80000000 -0.30000000 0.003199
-0.35000000 -0.05000000 0.75000000 0.003199
-0.30000000 -0.90000000 -0.80000000 0.003200
-0.75000000 0.10000000 -0.95000000 0.003200
-0.55000000 0.45000000 -0.95000000 0.003200
0.85000000 -0.30000000 -0.75000000 0.003201
0.95000000 -0.15000000 -0.65000000 0.003201
0.60000000 -0.90000000 0.30000000 0.003201
0.40000000 -0.60000000 0.65000000 0.003203
-0.85000000 -0.20000000 0.60000000 0.003203
0.75000000 0.05000000 0.60000000 0.003204
0.65000000 -0.20000000 -0.95000000 0.003204
-0.60000000 0.45000000 0.65000000 0.003207
-0.95000000 0.80000000 -0.20000000 0.003207
-0.25000000 0.75000000 -0.85000000 0.003208
-0.60000000 -0.40000000 0.70000000 0.003208
0.90000000 0.55000000 -0.45000000 0.003209
0.40000000 0.20000000 0.75000000 0.003209
-0.75000000 -0.30000000 0.65000000 0.003209
0.25000000 -0.90000000 0.45000000 0.003209
-0.35000000 0.40000000 0.75000000 0.003209
-0.30000000 0.05000000 0.75000000 0.003210
0.45000000 0.10000000 0.75000000 0.003211
-0.40000000 0.85000000 0.40000000 0.003212
-0.20000000 0.15000000 0.75000000 0.003212
0.25000000 -0.10000000 0.75000000 0.003213
0.15000000 0.20000000 0.75000000 0.003213
0.90000000 -0.25000000 -0.70000000 0.003214
-0.10000000 0.20000000 0.75000000 0.003214
0.15000000 -0.35000000 0.75000000 0.003214
-0.90000000 -0.45000000 -0.75000000 0.003217
-0.45000000 -0.25000000 0.75000000 0.003217
-0.50000000 -0.50000000 0.70000000 0.003218
-0.55000000 -0.15000000 0.75000000 0.003219
-0.95000000 -0.25000000 0.50000000 0.003219
0.60000000 -0.15000000 -1.00000000 0.003219
0.25000000 0.95000000 -0.60000000 0.003219
-0.15000000 -0.85000000 0.55000000 0.003220
0.70000000 0.25000000 0.60000000 0.003220
0.75000000 0.20000000 -0.85000000 0.003220
-0.40000000 -0.20000000 0.75000000 0.003221
0.50000000 -0.75000000 -0.80000000 0.003222
-0.25000000 0.45000000 0.75000000 0.003223
-0.20000000 0.95000000 -0.65000000 0.003224
0.30000000 -0.35000000 0.75000000 0.003225
-0.45000000 -1.00000000 -0.65000000 0.003226
-1.00000000 0.00000000 0.50000000 0.003226
0.80000000 -1.00000000 -0.10000000 0.003226
-0.70000000 -0.40000000 0.65000000 0.003227
-0.15000000 -0.75000000 -0.95000000 0.003227
-0.65000000 0.80000000 0.35000000 0.003228
0.55000000 1.00000000 0.20000000 0.003230
0.65000000 0.20000000 0.65000000 0.003231
0.25000000 0.10000000 0.75000000 0.003231
0.75000000 -0.45000000 0.50000000 0.003231
0.80000000 -0.15000000 0.55000000 0.003232
-0.20000000 -0.65000000 0.70000000 0.003232
0.20000000 -0.25000000 0.75000000 0.003233
0.45000000 -0.15000000 0.75000000 0.003233
-0.85000000 -0.95000000 -0.30000000 0.003234
-0.80000000 -0.35000000 0.60000000 0.003235
0.45000000 0.45000000 -0.95000000 0.003235
0.05000000 -0.85000000 0.55000000 0.003235
0.10000000 -0.65000000 0.70000000 0.003236
-0.70000000 -0.35000000 -0.95000000 0.003236
0.95000000 -0.50000000 0.30000000 0.003237
0.40000000 -0.60000000 -0.95000000 0.003237
-0.60000000 -0.60000000 -0.90000000 0.003238
0.10000000 0.95000000 -0.65000000 0.003238
1.00000000 0.60000000 0.15000000 0.003239
-0.90000000 -0.55000000 0.40000000 0.003242
0.65000000 0.35000000 0.60000000 0.003242
